0 0 0 0 0 0 0 100 100 100 100 100 99 99 100 100 100 100 102 101 101 102 0 0 0 0 0 0 0 0 0 103 103 103 103 0 0 0 0 0 0 0 108 108 107 107 106 106 106 105 105 105 105 105 105 103 103 103 103 103 105 105 105 105 105 106 106 107 107 108 110 111 112 112 111 111 110 108 108 108 0 0 115 115 115 115 115 115 115 115 115 115 115 117 117 117 117 117 115 115 115 114 114 114 114 112 112 114 112 112 112 112 114 114 117 118 118 120 120 118 118 118 118 118 118 118 117 117 118 118 118 117 117 117 115 115 115 115 115 115 115 115 115 115 114 114 114 115 115 115 115 115 115 115 114 114 112 112 112 112 112 112 112 112 114 114 114 112 112 112 114 115 115 114 114 114 115 115 115 115 114 114 115 117 115 115 117 117 118 118 118 118 120 120 120 118 118 118 115 115 117 118 118 118 118 120 120 120 120 118 118 118 117 117 117 117 117 117 117 115 115 115 115 117 117 112 112 117 120 120 121 121 121 121 121 121 118 118 120 118 118 120 120 120 120 120 120 120 120 120 120 120 120 118 118 118 118 118 118 118 118 120 120 0 120 120 120 0 120 120 120 120 120 120 120 120 117 117 117 117 0 0 0 0 0 0 0 0 0 0 0 0 0 0 121 118 118 118 118 118 118 118 118 118 120 120 118 118 120 118 118 118 118 120 118 118 118 118 118 118 118 118 118 118 120 120 120 120 120 120 118 118 118 120 120 120 120 118 118 118 118 118 118 118 118 118 120 120 120 120 120 120 120 120 118 118 118 0 0 0 0 0 118 117 117 117 117 114 114 115 115 118 118 118 120 120 118 118 118 118 120 115 115 117 117 118 118 118 0 0 0 0 117 115 115 115 115 117 117 118 118 118 118 118 118 118 118 118 118 118 118 118 118 118 118 118 120 120 120 120 121 121 121 121 120 120 120 0 114 114 112 112 115 115 115 114 114 114 114 115 115 115 115 115 117 115 114 114 114 115 115 115 115 115 115 115 115 115 117 117 117 115 115 115 115 115 115 114 114 114 114 114 114 114 114 115 115 117 117 115 115 117 115 115 117 117 117 117 117 0 0 0 0 0 0 0 0 0 0 0 0 0 0 0 0 0 0 0 0 0 0 0 0 0 0 0 0 0 0 0 0 0 0 0 0 0 0 0 0 0 0 0 0 0 0 0 0 0 0 0 0 0 0 0 0 0 0 0 0 0 0 0 0 0 0 0 0 0 0 0 0 0 0 0 0 0 0 0 0 0 0 0 0 0 0 0 0 0 0 0 0 0 0 0 0 0 0 0 0 0 0 0 0 0 0 0 0 0 0 0 0 0 0 0 0 0 0 0 0 0 0 0 0 0 0 0 0 0 0 0 0 0 0 0 0 0 0 0 0 0 0 0 0 0 0 0 0 0 0 0
0 0 0 0 0 0 0 100 100 100 100 100 99 99 100 100 100 100 102 101 101 102 0 0 0 0 0 0 0 0 0 0 0 0 0 0 0 0 0 0 0 0 107 107 107 107 106 106 106 105 105 105 105 105 105 103 103 103 103 103 103 103 103 103 103 105 105 106 106 107 110 110 110 111 110 110 111 108 108 108 110 112 112 115 115 115 115 115 115 114 114 115 115 117 117 117 117 117 117 117 115 114 114 114 114 114 115 114 114 114 114 114 114 114 117 118 118 120 120 120 120 120 120 120 120 118 117 117 118 118 118 117 117 115 115 115 115 115 115 115 115 115 115 115 114 114 114 115 115 115 115 115 115 115 112 112 112 112 112 112 112 112 112 115 115 115 115 114 114 114 114 114 114 114 114 114 115 115 115 115 115 115 115 115 115 115 117 117 118 118 120 120 118 118 120 118 118 118 117 117 117 118 117 117 118 118 120 120 120 118 118 118 118 118 118 118 118 118 117 115 114 114 114 114 112 112 112 112 120 120 121 121 123 123 123 123 118 118 118 118 118 120 120 120 121 121 120 120 120 120 120 120 118 118 118 118 118 118 118 118 118 120 120 0 0 0 0 0 120 120 120 118 118 118 120 118 117 117 117 117 0 0 0 0 0 0 0 0 0 0 0 0 0 0 118 118 118 118 118 118 118 118 120 120 120 118 118 120 120 120 118 118 120 120 120 120 118 118 118 118 118 118 118 118 120 120 120 120 120 120 120 120 120 120 120 120 118 118 118 118 118 118 118 118 118 118 120 120 120 120 120 120 120 120 118 118 118 0 0 0 0 0 118 114 114 117 117 115 115 115 115 118 118 118 120 120 118 118 118 118 117 115 115 117 117 118 118 118 118 0 0 115 0 115 115 115 117 117 117 117 117 117 118 117 117 117 118 118 118 118 118 118 118 118 118 118 118 120 120 120 121 121 121 120 120 120 120 117 118 118 118 118 117 117 115 115 114 114 114 115 118 118 118 118 118 117 115 115 117 115 115 115 115 115 115 115 115 115 115 115 115 115 115 115 115 115 115 114 114 114 114 114 114 114 114 115 115 117 117 117 117 117 115 115 117 117 117 117 117 0 0 0 0 0 0 0 0 0 0 0 0 0 0 0 0 0 0 0 0 0 0 0 0 0 0 0 0 0 0 0 0 0 0 0 0 0 0 0 0 0 0 0 0 0 0 0 0 0 0 0 0 0 0 0 0 0 0 0 0 0 0 0 0 0 0 0 0 0 0 0 0 0 0 0 0 0 0 0 0 0 0 0 0 0 0 0 0 0 0 0 0 0 0 0 0 0 0 0 0 0 0 0 0 0 0 0 0 0 0 0 0 0 0 0 0 0 0 0 0 0 0 0 0 0 0 0 0 0 0 0 0 0 0 0 0 0 0 0 0 0 0 0 0 0 0 0 0 0 0 0
0 0 0 0 0 0 0 101 101 101 102 100 99 99 100 100 100 100 101 101 101 102 0 0 0 0 0 0 0 0 0 0 0 0 0 0 0 0 0 0 0 0 107 107 107 107 106 106 106 105 105 106 106 105 103 103 103 103 103 103 103 103 103 103 103 103 105 106 106 107 110 110 110 111 110 110 111 108 108 110 110 112 112 114 114 114 114 114 114 114 114 115 115 115 117 117 117 117 117 117 115 114 114 114 114 110 110 112 112 112 114 114 114 115 115 118 118 120 120 120 120 120 120 120 120 115 115 115 118 118 118 115 115 115 115 115 115 115 115 115 115 115 117 117 117 115 115 115 115 115 115 115 115 114 112 112 112 112 112 114 114 114 117 117 117 117 115 115 114 114 115 114 114 114 114 114 115 115 115 115 115 115 115 115 115 115 117 117 118 118 120 117 115 115 120 117 117 115 115 117 118 118 115 115 118 118 120 120 120 118 118 118 118 118 118 118 120 118 118 115 114 114 114 114 112 112 112 112 112 121 121 121 121 121 121 118 118 118 118 118 118 120 120 121 121 121 121 120 120 120 120 120 118 118 118 118 118 118 118 118 118 118 118 0 0 0 0 0 0 118 118 118 118 118 120 118 118 117 117 117 0 0 0 0 0 0 0 0 0 0 0 0 0 0 118 118 118 118 118 118 118 118 120 120 120 118 118 118 120 120 120 0 0 120 120 120 118 118 120 118 118 118 118 118 118 118 118 120 120 120 120 118 118 118 118 118 118 118 118 118 118 118 118 118 118 118 118 120 120 120 118 118 120 120 120 118 118 0 0 0 0 0 0 114 114 117 117 115 115 115 115 117 118 118 120 118 118 118 118 118 117 117 117 118 118 120 120 120 120 0 0 0 0 115 115 115 117 117 117 117 117 117 117 117 115 115 117 118 120 118 118 120 120 118 118 118 118 120 120 120 121 121 121 120 118 115 115 117 117 117 117 117 118 117 117 115 114 114 114 118 118 118 118 118 118 118 117 117 117 117 115 115 115 115 115 115 115 115 115 115 115 115 114 114 115 115 115 114 114 114 114 114 114 114 114 115 115 117 117 117 117 117 115 115 117 117 117 117 117 0 0 0 0 0 0 0 0 0 0 0 0 0 0 0 0 0 0 0 0 0 0 0 0 0 0 0 0 0 0 0 0 0 0 0 0 0 0 0 0 0 0 0 0 0 0 0 0 0 0 0 0 0 0 0 0 0 0 0 0 0 0 0 0 0 0 0 0 0 0 0 0 0 0 0 0 0 0 0 0 0 0 0 0 0 0 0 0 0 0 0 0 0 0 0 0 0 0 0 0 0 0 0 0 0 0 0 0 0 0 0 0 0 0 0 0 0 0 0 0 0 0 0 0 0 0 0 0 0 0 0 0 0 0 0 0 0 0 0 0 0 0 0 0 0 0 0 0 0 0 0
0 0 0 0 0 0 0 99 99 99 99 100 100 99 99 100 100 100 100 101 101 102 0 0 0 0 0 0 0 0 0 0 0 0 0 0 0 0 0 0 0 0 107 107 107 107 0 0 106 105 105 106 106 105 103 103 103 103 103 103 103 103 103 103 103 103 105 106 107 108 111 111 111 111 110 110 111 110 110 110 110 112 112 114 114 114 114 114 114 114 114 115 115 115 117 117 117 117 117 117 117 117 114 114 112 110 110 111 112 112 112 114 114 115 115 115 118 118 118 120 120 120 120 120 120 115 115 115 118 118 118 115 115 115 115 115 115 115 115 115 115 115 117 117 117 115 115 115 115 115 115 115 115 114 112 112 112 112 117 117 117 117 115 115 114 114 114 114 114 115 115 117 115 115 115 115 115 115 115 115 115 115 115 117 117 117 118 118 118 118 120 117 115 115 118 117 117 115 115 117 118 117 115 115 118 118 120 120 120 118 118 118 118 118 118 118 120 120 118 118 115 114 114 114 117 117 118 118 118 121 121 121 121 115 115 117 117 118 118 118 118 120 121 121 121 121 121 121 121 121 120 120 118 118 118 118 118 118 118 118 118 118 118 118 0 0 117 117 118 118 118 118 118 118 120 120 120 120 120 123 125 125 0 0 0 0 0 0 0 0 0 0 0 0 118 118 118 118 118 118 118 118 120 120 120 118 118 118 118 0 118 0 120 120 120 120 120 120 120 120 118 118 118 118 118 118 118 118 118 120 120 118 118 118 118 118 118 118 118 118 118 118 118 118 117 117 117 118 118 120 118 118 118 120 118 118 118 0 0 0 0 0 0 115 115 115 115 115 115 115 115 117 118 118 120 118 118 118 118 118 117 117 117 117 118 120 120 120 0 0 0 0 115 115 115 115 117 115 115 115 117 117 117 117 115 115 117 118 118 118 118 118 120 118 118 118 118 120 120 120 120 120 120 118 117 115 115 117 117 117 117 117 118 117 117 115 114 114 114 118 118 118 118 118 118 118 118 118 118 115 115 115 114 114 115 114 114 115 115 114 114 114 114 114 114 114 115 114 114 114 114 114 114 114 114 115 117 117 117 115 115 115 115 115 117 117 117 117 118 0 0 0 0 0 0 0 0 0 0 0 0 0 0 0 0 0 0 0 0 0 0 0 0 0 0 0 0 0 0 0 0 0 0 0 0 0 0 0 0 0 0 0 0 0 0 0 0 0 0 0 0 0 0 0 0 0 0 0 0 0 0 0 0 0 0 0 0 0 0 0 0 0 0 0 0 0 0 0 0 0 0 0 0 0 0 0 0 0 0 0 0 0 0 0 0 0 0 0 0 0 0 0 0 0 0 0 0 0 0 0 0 0 0 0 0 0 0 0 0 0 0 0 0 0 0 0 0 0 0 0 0 0 0 0 0 0 0 0 0 0 0 0 0 0 0 0 0 0 0 0
0 0 0 0 0 0 0 98 98 99 99 100 100 99 99 100 100 100 100 0 0 0 0 0 0 0 0 0 0 0 0 0 0 0 0 0 0 0 0 0 0 0 107 107 107 107 0 0 0 0 0 0 103 103 103 105 105 105 103 103 103 103 103 103 103 105 105 107 107 108 110 110 110 110 110 110 111 112 110 110 111 112 114 114 114 112 112 114 114 114 114 115 115 115 115 115 115 115 117 117 117 117 114 114 112 110 110 111 112 112 112 114 114 114 114 114 114 118 118 120 120 120 120 120 120 115 115 117 118 118 118 117 115 115 115 115 115 115 115 115 115 115 117 117 114 114 115 117 117 117 115 115 117 115 114 114 115 117 117 117 117 115 115 115 114 114 114 114 114 115 115 115 115 115 115 115 115 115 115 115 115 115 115 117 117 117 118 118 118 120 120 117 115 115 118 117 117 115 115 118 118 117 115 114 114 118 118 118 120 118 118 118 118 118 118 118 118 118 118 118 115 115 115 115 118 118 118 118 118 120 120 121 121 115 115 117 117 118 118 118 118 120 121 121 121 121 120 120 121 121 120 120 118 118 118 118 118 118 118 118 118 118 118 0 0 0 117 117 117 117 117 118 118 118 120 120 121 125 123 123 125 125 125 125 0 0 0 0 0 0 0 0 0 0 118 118 118 118 118 118 118 118 118 118 118 118 118 118 118 0 0 0 0 120 120 120 120 120 120 120 118 118 118 118 118 118 118 118 118 118 120 118 118 118 118 118 118 118 118 118 118 118 118 118 117 117 117 117 118 118 118 118 118 118 118 118 118 0 0 0 0 0 0 0 115 115 115 115 115 115 115 118 118 118 118 118 118 118 117 117 117 117 117 117 118 118 118 0 0 118 0 118 0 0 117 117 117 115 115 115 117 117 117 117 115 115 117 118 118 118 118 118 120 118 118 118 118 118 120 120 120 120 118 117 115 115 115 115 118 117 117 0 118 118 118 118 118 117 117 118 118 118 118 118 118 118 120 120 0 0 117 117 114 114 114 114 114 114 114 114 114 114 114 114 114 114 115 114 114 114 114 115 114 114 114 115 117 117 117 115 115 115 115 115 117 117 117 117 118 0 0 0 0 0 0 0 0 0 0 0 0 0 0 0 0 0 0 0 0 0 0 0 0 0 0 0 0 0 0 0 0 0 0 0 0 0 0 0 0 0 0 0 0 0 0 0 0 0 0 0 0 0 0 0 0 0 0 0 0 0 0 0 0 0 0 0 0 0 0 0 0 0 0 0 0 0 0 0 0 0 0 0 0 0 0 0 0 0 0 0 0 0 0 0 0 0 0 0 0 0 0 0 0 0 0 0 0 0 0 0 0 0 0 0 0 0 0 0 0 0 0 0 0 0 0 0 0 0 0 0 0 0 0 0 0 0 0 0 0 0 0 0 0 0 0 0 0 0 0 0
0 0 0 0 0 0 0 98 98 98 99 100 100 100 101 101 101 101 101 101 0 0 0 0 0 0 0 0 0 0 0 0 0 0 0 0 0 0 0 0 0 0 0 0 0 0 0 0 0 0 0 0 103 103 103 105 103 103 103 103 103 103 103 103 103 105 106 107 108 108 110 110 110 110 110 110 111 111 111 111 112 112 114 114 114 112 112 114 114 114 114 115 115 115 115 115 115 115 115 115 115 115 114 114 114 111 111 112 112 111 111 112 114 114 114 114 114 115 117 118 120 120 120 120 120 120 118 118 118 118 118 117 117 115 115 115 115 117 115 115 115 115 117 117 114 114 114 117 117 117 115 115 115 115 115 115 117 117 117 117 117 115 115 115 115 114 114 114 115 115 115 115 115 115 115 115 115 115 115 115 115 115 115 117 117 117 118 118 118 120 120 117 117 118 118 117 117 117 117 118 118 118 115 114 114 115 118 118 118 118 118 118 118 118 118 118 117 117 118 118 114 114 115 115 118 117 117 117 118 120 120 120 120 115 115 117 117 118 118 118 120 120 121 121 121 120 120 120 121 121 121 120 118 118 118 118 118 118 118 117 117 118 120 0 0 0 117 117 117 117 117 117 118 118 121 121 123 125 125 125 125 123 123 125 0 0 0 0 0 0 0 120 120 120 118 118 118 118 118 117 117 118 118 118 118 118 118 118 0 0 0 0 0 121 121 121 121 120 120 120 118 118 117 117 117 118 117 117 117 118 120 118 118 118 118 118 118 118 118 118 117 117 118 117 117 117 117 117 117 117 117 117 118 118 118 117 117 0 0 0 0 0 0 0 0 115 115 115 115 115 115 118 118 118 117 117 118 118 117 117 117 117 117 117 118 118 118 118 118 118 118 118 118 0 117 117 117 117 117 117 117 117 117 115 115 115 117 117 118 118 118 118 118 117 117 117 117 118 120 120 120 120 118 117 115 115 115 118 118 118 118 0 0 117 0 0 0 117 117 117 117 118 118 118 118 118 118 118 0 0 112 112 112 112 114 114 114 114 112 112 114 114 114 114 114 114 114 114 114 115 115 115 115 115 115 117 117 117 117 117 117 115 115 115 117 117 117 117 118 0 0 0 0 0 0 0 0 0 0 0 0 0 0 0 0 0 0 0 0 0 0 0 0 0 0 0 0 0 0 0 0 0 0 0 0 0 0 0 0 0 0 0 0 0 0 0 0 0 0 0 0 0 0 0 0 0 0 0 0 0 0 0 0 0 0 0 0 0 0 0 0 0 0 0 0 0 0 0 0 0 0 0 0 0 0 0 0 0 0 0 0 0 0 0 0 0 0 0 0 0 0 0 0 0 0 0 0 0 0 0 0 0 0 0 0 0 0 0 0 0 0 0 0 0 0 0 0 0 0 0 0 0 0 0 0 0 0 0 0 0 0 0 0 0 0 0 0 0 0 0
0 0 0 0 0 0 0 96 96 97 98 100 101 102 103 103 102 102 102 103 0 0 0 0 0 0 0 0 0 0 0 0 0 0 0 0 0 0 0 0 0 0 0 0 0 0 0 0 0 0 0 0 0 103 103 103 103 103 103 103 103 103 103 103 103 105 106 107 108 108 108 108 108 108 108 110 110 111 111 111 112 112 114 114 114 112 112 114 114 114 114 115 115 115 115 115 115 115 115 115 115 115 114 114 114 111 111 112 112 111 111 112 114 114 114 114 114 115 117 118 118 118 118 118 118 118 118 118 118 118 118 117 117 117 117 117 117 117 115 115 115 115 114 114 114 114 114 115 115 115 115 115 115 115 115 115 117 117 117 115 115 115 115 115 115 114 114 114 115 115 114 114 115 115 115 115 115 115 115 115 115 115 115 117 117 117 118 118 118 120 120 118 118 118 118 117 117 118 118 118 118 118 115 115 115 115 118 118 117 117 117 117 117 118 118 118 117 117 117 114 114 114 114 115 117 117 117 117 118 118 118 118 118 114 114 117 117 118 121 120 120 121 121 121 120 120 120 120 120 121 121 121 118 118 120 120 118 118 118 117 117 117 117 0 117 118 118 117 117 117 117 117 118 120 121 123 125 125 125 123 123 123 123 123 0 0 0 0 0 0 120 120 120 118 117 117 118 117 117 117 117 117 118 118 118 118 118 118 0 118 118 118 0 120 120 120 121 120 120 121 120 120 117 117 117 118 117 117 117 118 120 118 118 118 118 118 118 118 118 118 117 117 118 117 117 117 117 117 117 117 117 117 117 117 117 115 115 115 118 118 0 0 0 0 118 118 117 115 115 115 117 118 118 118 117 117 117 118 117 117 118 117 117 118 118 118 118 118 118 118 118 118 118 117 117 117 117 117 117 117 117 117 117 115 115 115 115 117 118 117 117 117 118 117 117 117 117 118 0 0 0 0 0 0 115 115 115 115 117 118 118 0 0 0 0 0 0 117 117 117 117 118 118 118 118 118 118 118 118 120 120 112 112 112 114 114 114 112 112 112 112 114 114 114 114 114 114 114 114 114 115 115 117 117 117 117 117 117 117 117 117 117 115 115 117 117 117 117 0 0 0 0 0 0 0 0 0 0 0 0 0 0 0 0 0 0 0 0 0 0 0 0 0 0 0 0 0 0 0 0 0 0 0 0 0 0 0 0 0 0 0 0 0 0 0 0 0 0 0 0 0 0 0 0 0 0 0 0 0 0 0 0 0 0 0 0 0 0 0 0 0 0 0 0 0 0 0 0 0 0 0 0 0 0 0 0 0 0 0 0 0 0 0 0 0 0 0 0 0 0 0 0 0 0 0 0 0 0 0 0 0 0 0 0 0 0 0 0 0 0 0 0 0 0 0 0 0 0 0 0 0 0 0 0 0 0 0 0 0 0 0 0 0 0 0 0 0 0 0 0
0 0 0 0 0 0 0 96 96 97 98 101 102 102 102 102 102 102 103 103 0 0 0 0 0 0 0 0 0 0 0 0 0 0 0 0 0 0 0 0 0 0 0 0 0 0 0 0 0 0 0 0 103 103 103 103 103 103 103 103 103 103 103 103 105 105 107 108 108 108 108 107 107 108 108 108 110 111 111 111 112 112 114 114 112 112 112 112 112 114 114 115 115 115 115 115 114 114 115 115 115 115 114 114 114 112 112 112 112 112 112 112 114 114 114 114 114 115 115 115 115 115 115 115 115 115 117 117 117 118 118 117 117 117 117 115 115 115 115 114 114 114 114 114 114 114 114 114 114 114 114 114 114 114 114 114 115 115 115 114 114 114 114 114 114 114 114 114 114 114 114 114 115 115 115 115 114 114 114 114 114 115 115 117 117 118 118 120 120 120 120 118 117 117 118 118 118 118 118 118 118 117 115 115 115 115 118 118 117 117 117 117 117 118 118 118 117 117 117 114 114 114 114 115 117 117 117 118 118 118 118 118 118 114 114 114 120 120 121 120 120 121 121 121 120 120 120 120 120 120 120 120 118 118 118 118 118 118 118 117 117 117 117 117 117 118 118 118 117 117 117 117 118 120 121 123 125 125 125 123 123 121 121 120 120 0 120 120 118 118 118 118 118 117 115 115 115 117 117 117 117 117 118 118 118 118 120 120 0 118 118 118 118 118 118 118 118 118 121 121 120 120 120 118 118 118 117 117 117 118 120 120 120 118 118 118 118 118 117 117 117 117 117 117 115 115 115 117 117 117 117 117 117 117 115 115 114 114 115 117 118 118 0 0 118 118 118 118 117 117 118 118 118 118 117 117 117 117 118 118 118 118 118 118 118 118 118 118 118 118 118 118 117 117 117 117 118 117 117 117 117 117 117 115 115 115 115 117 117 117 117 117 118 117 117 117 117 0 0 0 0 0 0 0 115 115 115 115 117 118 118 0 0 0 0 0 0 118 118 118 118 118 118 117 117 117 117 118 118 120 120 114 114 114 114 112 112 112 112 112 112 112 114 114 114 114 114 114 114 114 115 115 117 117 117 117 117 117 117 117 117 117 115 115 117 117 117 0 0 0 0 0 0 0 0 0 0 0 0 0 0 0 0 0 0 0 0 0 0 0 0 0 0 0 0 0 0 0 0 0 0 0 0 0 0 0 0 0 0 0 0 0 0 0 0 0 0 0 0 0 0 0 0 0 0 0 0 0 0 0 0 0 0 0 0 0 0 0 0 0 0 0 0 0 0 0 0 0 0 0 0 0 0 0 0 0 0 0 0 0 0 0 0 0 0 0 0 0 0 0 0 0 0 0 0 0 0 0 0 0 0 0 0 0 0 0 0 0 0 0 0 0 0 0 0 0 0 0 0 0 0 0 0 0 0 0 0 0 0 0 0 0 0 0 0 0 0 0 0 0
0 0 0 0 0 0 0 96 96 98 98 101 102 102 102 102 102 102 102 0 0 0 0 102 102 102 103 103 0 0 0 0 0 0 0 0 0 0 0 0 0 0 0 0 0 0 0 0 0 0 0 0 102 102 103 103 103 103 103 103 103 105 105 105 105 105 107 107 107 108 107 107 107 107 107 108 108 110 111 111 112 112 112 112 111 111 111 112 112 114 114 115 117 117 115 115 114 114 114 114 114 115 114 114 114 112 112 114 112 112 112 114 114 114 114 114 114 115 115 114 114 114 114 114 114 115 115 115 117 117 117 117 117 117 117 115 115 115 115 114 114 112 112 114 114 114 114 114 114 114 112 112 112 112 112 114 114 115 114 114 114 114 114 114 114 114 114 114 114 114 114 115 115 115 115 114 114 114 114 114 114 115 115 117 117 118 118 120 120 121 121 118 117 117 118 118 118 118 118 118 118 115 115 118 118 117 117 118 118 118 118 118 118 118 118 118 117 117 118 117 117 115 115 117 118 118 118 118 118 118 118 120 118 114 114 114 117 118 118 120 118 118 120 120 120 120 120 120 120 120 120 120 118 118 118 118 118 118 117 117 118 117 117 117 117 117 117 117 117 117 117 118 118 120 121 123 123 125 125 123 123 121 121 120 120 120 120 120 118 118 118 118 118 117 115 115 115 115 115 115 117 117 118 118 118 120 118 118 120 118 118 118 118 118 118 118 118 118 121 121 120 120 120 118 118 118 117 117 117 117 118 118 118 117 117 117 117 115 115 114 114 114 115 115 115 115 115 115 115 115 115 115 115 115 115 115 114 114 115 117 117 0 0 115 115 117 118 118 118 118 118 118 118 118 117 117 117 117 118 118 118 118 118 118 118 120 118 118 118 118 118 117 115 115 115 115 115 115 114 114 115 115 115 115 114 114 115 115 117 117 117 117 118 117 117 117 117 0 0 0 0 0 0 0 117 115 115 117 117 118 118 0 0 120 0 0 0 117 117 117 118 117 117 117 117 117 117 118 117 117 117 114 114 114 114 112 112 112 112 112 112 112 114 114 114 114 114 114 115 115 117 118 118 118 118 117 117 117 117 117 117 117 117 117 118 117 117 0 0 0 0 0 0 0 0 0 0 0 0 0 0 0 0 0 0 0 0 0 0 0 0 0 0 0 0 0 0 0 0 0 0 0 0 0 0 0 0 0 0 0 0 0 0 0 0 0 0 0 0 0 0 0 0 0 0 0 0 0 0 0 0 0 0 0 0 0 0 0 0 0 0 0 0 0 0 0 0 0 0 0 0 0 0 0 0 0 0 0 0 0 0 0 0 0 0 0 0 0 0 0 0 0 0 0 0 0 0 0 0 0 0 0 0 0 0 0 0 0 0 0 0 0 0 0 0 0 0 0 0 0 0 0 0 0 0 0 0 0 0 0 0 0 0 0 0 0 0 0 0 0
0 0 0 0 0 0 0 96 96 98 99 101 101 101 101 101 102 102 101 101 102 102 102 102 102 102 103 103 103 103 0 0 0 0 0 0 0 0 0 0 0 0 0 0 0 0 0 0 0 0 0 0 102 102 105 105 106 105 105 105 106 106 106 106 106 106 108 107 107 107 107 107 107 107 107 108 108 110 111 111 112 112 112 111 111 111 111 112 112 112 114 115 117 117 115 115 115 115 114 114 114 114 114 114 114 112 112 114 114 114 114 114 114 115 115 115 115 114 114 114 114 114 114 114 114 115 115 115 117 117 117 117 117 117 117 115 115 115 115 114 114 112 112 114 112 112 112 112 112 112 112 112 112 112 112 114 114 114 114 112 112 112 112 112 112 112 114 114 114 114 114 114 115 115 115 114 114 114 114 114 114 115 115 117 118 118 120 120 121 123 121 120 118 118 118 118 118 118 118 118 118 115 115 118 118 117 117 118 118 118 118 118 118 118 118 118 117 117 117 117 117 117 117 117 118 118 120 120 120 120 120 120 118 115 115 115 117 118 118 118 118 118 120 120 120 118 118 118 120 120 120 120 118 118 118 118 118 118 117 117 118 117 117 117 117 117 117 117 117 118 118 118 118 120 121 123 123 125 123 123 121 121 121 123 123 120 120 118 118 118 118 118 118 117 114 114 114 115 115 115 115 117 118 118 118 118 118 118 120 118 118 118 118 118 118 118 118 118 121 121 120 120 120 118 117 117 117 117 117 117 118 118 118 117 115 115 114 114 112 112 114 114 114 114 114 114 114 115 115 115 115 115 115 115 115 115 114 114 114 115 115 115 115 115 115 117 117 117 118 118 118 118 118 118 118 117 117 117 118 118 120 118 118 120 118 118 118 117 117 117 117 115 115 115 115 115 115 114 114 114 114 115 115 115 114 114 115 115 117 117 117 118 118 117 115 115 115 0 0 0 0 0 0 0 117 117 117 117 117 118 118 120 120 0 0 0 0 117 117 117 118 117 117 117 117 117 118 118 117 117 117 114 114 114 114 114 114 112 112 112 114 114 114 114 114 114 114 114 115 115 0 0 115 117 0 0 117 117 117 117 117 117 117 117 118 118 0 0 0 0 0 0 0 0 0 0 0 0 0 0 0 0 0 0 0 0 0 0 0 0 0 0 0 0 0 0 0 0 0 0 0 0 0 0 0 0 0 0 0 0 0 0 0 0 0 0 0 0 0 0 0 0 0 0 0 0 0 0 0 0 0 0 0 0 0 0 0 0 0 0 0 0 0 0 0 0 0 0 0 0 0 0 0 0 0 0 0 0 0 0 0 0 0 0 0 0 0 0 0 0 0 0 0 0 0 0 0 0 0 0 0 0 0 0 0 0 0 0 0 0 0 0 0 0 0 0 0 0 0 0 0 0 0 0 0 0 0 0 0 0 0 0 0 0 0 0 0 0 0 0
0 0 0 0 0 0 0 99 99 99 99 101 101 101 101 100 100 102 101 101 102 102 102 102 102 103 103 103 103 103 0 0 0 0 0 0 0 0 0 0 0 0 0 0 0 0 0 0 0 0 0 0 103 103 105 105 106 105 105 106 106 106 107 107 107 107 106 106 106 106 105 105 106 106 107 107 110 111 111 111 112 112 112 111 111 111 111 111 111 112 114 117 115 115 115 115 115 115 114 114 114 114 114 114 114 112 112 114 115 114 114 114 115 117 117 115 115 114 114 114 114 114 114 114 114 114 114 115 117 117 117 117 117 117 117 117 117 115 115 115 117 114 114 112 112 112 111 111 111 111 111 111 112 112 114 114 114 114 114 112 112 112 112 112 112 112 114 114 114 114 114 114 115 115 115 115 114 114 114 115 115 117 117 117 118 120 120 120 121 121 121 120 118 118 118 118 118 118 118 118 118 118 118 118 118 117 117 118 118 118 118 118 118 118 118 118 117 117 117 117 117 117 117 118 118 118 118 120 120 120 120 120 117 115 115 117 118 118 118 118 118 118 120 120 120 118 118 118 120 120 120 120 118 118 118 118 118 120 120 118 118 117 117 117 118 118 117 117 118 118 118 118 118 120 121 121 120 120 121 121 120 120 120 121 121 118 118 118 118 118 118 118 118 115 114 114 114 114 114 115 115 117 118 118 120 120 118 118 120 118 118 118 118 118 118 120 118 118 118 121 121 121 120 118 117 117 117 117 117 117 118 118 118 117 115 115 114 112 112 112 112 112 114 114 114 114 114 115 115 117 117 117 117 117 117 115 114 114 114 115 115 114 114 114 115 117 117 117 118 118 118 118 118 118 118 118 118 120 0 120 120 120 120 120 118 118 118 117 117 117 117 115 114 114 114 115 115 114 114 114 114 115 115 115 115 115 115 117 117 118 118 118 118 117 115 115 115 0 0 0 0 0 0 0 0 117 117 117 117 118 120 120 120 120 0 118 0 117 117 117 118 118 117 117 117 117 118 118 118 117 115 115 114 114 114 114 114 114 114 114 114 114 114 114 114 114 114 114 114 114 114 0 0 0 0 115 115 115 117 117 117 117 117 117 118 118 0 0 0 0 0 0 0 0 0 0 0 0 0 0 0 0 0 0 0 0 0 0 0 0 0 0 0 0 0 0 0 0 0 0 0 0 0 0 0 0 0 0 0 0 0 0 0 0 0 0 0 0 0 0 0 0 0 0 0 0 0 0 0 0 0 0 0 0 0 0 0 0 0 0 0 0 0 0 0 0 0 0 0 0 0 0 0 0 0 0 0 0 0 0 0 0 0 0 0 0 0 0 0 0 0 0 0 0 0 0 0 0 0 0 0 0 0 0 0 0 0 0 0 0 0 0 0 0 0 0 0 0 0 0 0 0 0 0 0 0 0 0 0 0 0 0 0 0 0 0 0 0 0 0
0 0 0 0 0 0 0 101 101 102 102 102 101 101 101 100 100 101 101 101 102 102 102 102 103 103 103 103 103 0 0 0 0 0 0 0 0 0 0 0 0 0 0 0 0 0 0 0 0 0 0 0 103 103 105 105 105 106 106 106 106 107 107 107 106 106 102 102 103 105 105 105 106 106 106 107 108 111 111 111 112 112 112 112 111 111 111 111 111 112 115 115 115 115 115 115 115 114 114 114 114 114 114 114 114 112 112 114 115 115 114 114 115 117 117 115 115 115 115 114 114 114 112 112 112 112 114 114 115 117 117 117 117 117 117 117 117 115 115 117 117 114 114 112 112 112 111 111 111 111 111 111 112 112 114 114 114 114 114 112 112 112 112 112 114 114 114 114 114 115 115 115 115 115 115 114 114 114 114 115 115 117 117 118 118 120 120 120 120 121 120 120 118 118 118 118 118 118 118 118 118 118 118 118 118 117 117 118 118 118 118 118 118 118 118 118 117 117 117 115 115 115 117 118 118 118 118 118 118 117 117 118 117 117 117 117 118 118 118 118 118 118 120 120 120 120 118 118 118 118 120 120 118 118 118 118 118 120 120 120 118 118 118 118 118 118 118 118 118 117 117 117 117 118 120 118 118 118 120 120 120 120 120 121 121 118 118 118 118 118 118 118 118 115 114 114 114 114 114 115 115 117 118 118 118 118 118 118 120 120 118 118 118 118 118 120 118 118 118 120 121 121 121 120 118 118 118 118 118 118 120 118 118 117 117 115 114 112 112 112 112 112 114 114 114 114 114 115 115 117 117 117 117 117 117 115 115 115 115 115 115 114 114 114 115 117 118 118 118 118 118 118 118 118 118 118 118 120 0 0 120 120 120 120 118 118 118 117 117 117 115 115 114 114 114 114 115 115 114 114 115 115 115 117 115 115 115 115 120 118 118 118 115 115 115 115 115 0 0 0 0 0 0 0 118 118 117 117 118 118 120 120 120 118 118 118 118 118 118 118 118 118 118 118 118 118 118 117 117 117 115 115 114 114 114 114 114 114 114 114 114 114 114 114 114 114 114 114 114 114 114 0 0 0 112 115 115 115 117 117 117 117 117 117 117 0 0 0 0 0 0 0 0 0 0 0 0 0 0 0 0 0 0 0 0 0 0 0 0 0 0 0 0 0 0 0 0 0 0 0 0 0 0 0 0 0 0 0 0 0 0 0 0 0 0 0 0 0 0 0 0 0 0 0 0 0 0 0 0 0 0 0 0 0 0 0 0 0 0 0 0 0 0 0 0 0 0 0 0 0 0 0 0 0 0 0 0 0 0 0 0 0 0 0 0 0 0 0 0 0 0 0 0 0 0 0 0 0 0 0 0 0 0 0 0 0 0 0 0 0 0 0 0 0 0 0 0 0 0 0 0 0 0 0 0 0 0 0 0 0 0 0 0 0 0 0 0 0 0 0
0 0 0 0 0 0 0 101 101 101 101 101 101 101 100 100 100 101 101 101 102 102 102 103 103 103 105 105 0 0 0 0 0 0 0 0 0 0 0 0 0 0 0 0 0 0 0 0 0 0 0 0 103 103 103 103 105 105 105 105 106 106 107 107 106 106 102 102 103 103 103 103 105 106 106 107 108 108 108 110 111 112 112 112 112 112 112 111 111 111 115 115 114 114 114 115 115 114 112 112 112 114 114 114 114 114 114 115 117 115 115 115 115 115 117 115 115 114 114 112 112 112 111 111 111 112 112 114 114 115 115 117 117 117 117 117 117 117 117 117 117 117 114 114 112 112 111 110 110 110 111 111 112 112 114 114 114 115 114 114 114 112 112 114 114 114 114 115 114 114 115 115 115 115 115 114 114 114 114 115 115 117 117 118 120 120 120 120 120 121 120 120 118 118 118 118 118 118 118 118 118 118 118 118 118 117 117 118 118 118 120 118 118 118 118 118 117 117 117 115 115 115 117 118 118 118 118 118 118 117 117 118 117 117 117 118 120 120 120 120 120 120 120 120 120 120 120 120 118 118 120 120 118 118 118 120 120 120 120 120 118 118 118 118 120 118 118 118 117 115 115 115 115 117 117 117 117 117 118 118 118 118 118 118 118 118 118 118 118 118 118 118 118 117 115 115 115 115 115 115 117 117 118 118 118 118 118 118 118 118 118 120 120 120 120 118 118 118 118 118 120 120 120 120 120 120 118 118 118 118 120 120 120 117 115 115 114 112 112 112 112 114 114 114 115 115 115 115 117 117 117 117 117 117 117 117 115 115 115 115 115 115 115 117 117 117 118 118 118 118 118 118 118 117 117 117 117 120 0 0 0 120 0 120 120 118 118 118 118 117 115 115 114 114 114 114 115 115 115 115 115 115 115 118 118 118 118 120 120 118 118 117 115 115 117 117 117 117 0 0 0 0 0 0 118 118 118 118 118 118 120 120 118 118 118 118 118 118 118 118 118 118 117 117 118 118 118 117 117 118 115 114 114 114 114 114 114 114 114 114 115 115 115 114 114 114 114 114 112 112 112 0 0 112 112 112 112 114 115 117 117 117 117 117 117 0 0 0 0 0 0 0 0 0 0 0 0 0 0 0 0 0 0 0 0 0 0 0 0 0 0 0 0 0 0 0 0 0 0 0 0 0 0 0 0 0 0 0 0 0 0 0 0 0 0 0 0 0 0 0 0 0 0 0 0 0 0 0 0 0 0 0 0 0 0 0 0 0 0 0 0 0 0 0 0 0 0 0 0 0 0 0 0 0 0 0 0 0 0 0 0 0 0 0 0 0 0 0 0 0 0 0 0 0 0 0 0 0 0 0 0 0 0 0 0 0 0 0 0 0 0 0 0 0 0 0 0 0 0 0 0 0 0 0 0 0 0 0 0 0 0 0 0 0 0 0 0 0 0 0
0 0 0 0 0 0 0 101 101 101 101 101 101 101 100 100 100 101 101 102 102 103 103 103 103 106 106 106 106 0 0 0 0 0 0 0 0 0 0 0 0 0 0 0 0 0 0 0 0 0 0 0 102 102 103 103 103 105 105 105 106 106 107 107 106 106 101 101 102 102 103 103 105 107 107 107 107 108 108 110 110 111 111 112 112 112 112 111 111 112 112 114 114 114 114 115 115 114 112 112 112 114 114 114 114 114 114 115 115 115 115 115 115 115 117 115 115 114 114 112 112 111 110 110 110 111 111 112 114 115 115 117 117 117 117 117 117 117 117 117 117 117 115 115 115 114 111 110 110 110 111 111 112 112 114 114 115 115 114 114 114 114 114 114 114 114 114 115 114 114 115 115 115 115 115 115 115 115 115 117 117 117 117 118 120 120 120 120 120 120 120 120 120 120 120 118 118 118 118 118 118 118 118 118 118 118 118 118 118 120 120 118 118 117 117 118 118 118 117 117 117 117 117 118 118 118 118 118 118 118 118 118 118 118 118 118 120 120 120 120 120 120 120 120 120 120 120 120 118 118 120 120 118 118 118 120 120 120 120 120 120 118 118 118 118 118 118 118 117 115 115 115 115 117 117 117 117 117 118 118 118 118 118 118 118 118 118 118 118 118 120 118 118 117 115 115 117 115 115 115 117 118 118 118 118 118 118 118 118 118 118 120 120 120 120 118 118 118 118 118 120 120 120 120 118 118 118 118 118 118 120 120 118 117 115 115 114 112 112 112 114 115 115 115 115 115 115 117 117 117 117 117 117 117 117 117 117 115 115 117 117 117 117 118 118 118 118 118 118 118 118 118 117 117 117 117 117 120 0 0 0 0 0 120 120 118 118 118 118 117 115 115 114 114 114 115 115 115 115 115 115 117 117 117 118 118 0 121 121 120 120 117 117 117 118 117 117 117 118 118 0 0 0 0 118 118 118 118 118 120 120 120 117 117 117 118 117 117 117 117 117 117 117 117 117 117 117 115 115 115 115 114 114 114 114 114 114 114 114 114 115 115 115 114 114 114 112 112 112 112 0 0 112 112 112 112 112 114 115 115 117 117 117 117 118 0 0 0 0 0 0 0 0 0 0 0 0 0 0 0 0 0 0 0 0 0 0 0 0 0 0 0 0 0 0 0 0 0 0 0 0 0 0 0 0 0 0 0 0 0 0 0 0 0 0 0 0 0 0 0 0 0 0 0 0 0 0 0 0 0 0 0 0 0 0 0 0 0 0 0 0 0 0 0 0 0 0 0 0 0 0 0 0 0 0 0 0 0 0 0 0 0 0 0 0 0 0 0 0 0 0 0 0 0 0 0 0 0 0 0 0 0 0 0 0 0 0 0 0 0 0 0 0 0 0 0 0 0 0 0 0 0 0 0 0 0 0 0 0 0 0 0 0 0 0 0 0 0 0 0
0 0 0 0 0 0 0 102 102 102 102 101 101 100 100 100 100 102 102 102 102 103 103 103 103 106 106 106 106 0 0 0 0 0 0 0 0 0 0 0 0 0 0 0 0 0 0 0 0 0 0 0 102 102 103 103 103 106 106 106 106 107 107 107 106 106 101 101 102 102 102 102 107 106 106 106 107 108 108 110 110 111 111 112 112 112 112 111 111 112 112 114 114 114 114 115 117 115 112 112 112 112 114 114 114 114 114 115 115 115 117 115 115 115 115 115 115 114 114 114 112 111 110 110 110 111 111 112 112 112 112 115 112 112 114 114 115 117 117 117 117 117 117 117 115 114 112 110 110 111 111 111 112 112 114 114 114 114 114 112 112 112 112 114 114 114 115 117 115 115 117 117 117 117 115 115 115 115 115 117 117 117 118 118 118 118 118 118 120 120 120 120 120 120 118 118 118 118 118 118 118 118 118 118 118 118 118 118 118 118 120 120 118 117 117 118 118 118 117 117 117 117 117 118 118 118 118 118 118 120 118 118 118 118 118 118 120 120 120 120 120 120 120 120 120 120 120 120 120 120 120 120 118 118 118 118 120 120 120 118 118 118 118 118 118 117 117 117 117 117 117 117 117 118 117 117 117 117 118 118 118 118 118 118 120 120 118 118 118 118 120 120 118 118 117 117 117 117 115 115 117 118 118 118 118 118 118 118 118 118 118 120 120 120 120 120 120 120 120 120 120 118 118 118 118 118 118 118 118 118 120 120 118 115 115 114 114 114 114 114 115 115 115 117 117 117 117 117 117 117 117 117 117 117 117 117 117 118 118 118 117 117 117 117 118 118 118 118 118 118 118 118 117 117 117 117 118 120 0 0 0 0 0 0 120 118 118 118 118 118 118 114 114 114 114 115 115 115 115 115 115 117 117 117 118 118 118 120 120 120 121 118 117 117 118 118 118 118 117 117 0 0 0 0 118 118 118 118 118 120 118 118 117 117 115 114 114 114 115 115 115 115 115 115 115 115 115 115 115 115 114 114 114 114 114 114 114 114 114 114 114 117 115 114 114 114 112 112 112 112 112 112 112 112 112 112 112 114 114 115 115 115 117 117 118 0 0 0 0 0 0 0 0 0 0 0 0 0 0 0 0 0 0 0 0 0 0 0 0 0 0 0 0 0 0 0 0 0 0 0 0 0 0 0 0 0 0 0 0 0 0 0 0 0 0 0 0 0 0 0 0 0 0 0 0 0 0 0 0 0 0 0 0 0 0 0 0 0 0 0 0 0 0 0 0 0 0 0 0 0 0 0 0 0 0 0 0 0 0 0 0 0 0 0 0 0 0 0 0 0 0 0 0 0 0 0 0 0 0 0 0 0 0 0 0 0 0 0 0 0 0 0 0 0 0 0 0 0 0 0 0 0 0 0 0 0 0 0 0 0 0 0 0 0 0 0 0 0 0 0
0 0 0 0 0 0 0 102 102 102 102 101 101 100 100 99 99 101 102 103 0 103 103 105 0 0 107 107 0 0 0 0 0 0 0 0 0 0 0 0 0 0 0 0 0 0 0 0 0 0 0 0 103 103 105 105 105 106 106 106 106 107 107 107 105 105 0 0 0 110 0 0 107 107 106 106 107 108 108 110 110 112 112 112 112 114 112 111 111 112 114 115 114 114 114 115 117 114 112 111 111 112 114 114 114 114 115 115 115 115 115 115 115 115 115 114 114 114 114 114 112 111 111 111 111 112 112 112 112 112 112 112 112 112 114 114 115 117 117 117 117 118 117 117 115 114 112 111 111 111 111 111 112 112 114 114 114 114 114 112 112 112 112 114 114 114 115 117 117 117 117 115 115 115 115 115 115 115 115 115 117 117 118 118 118 118 118 118 120 120 120 120 120 118 118 118 118 118 118 118 118 118 118 118 118 118 118 118 121 121 120 120 118 118 118 118 118 118 117 117 117 117 118 120 120 120 118 118 118 118 118 118 118 118 118 118 120 120 120 120 120 120 120 120 120 120 120 120 120 120 118 120 120 120 118 118 120 120 120 118 118 118 118 118 118 117 117 117 117 115 115 117 117 118 117 117 117 117 118 118 118 118 118 118 120 120 118 118 118 118 120 120 118 118 117 117 117 117 115 115 117 118 118 118 118 118 118 118 118 118 118 118 120 120 120 120 120 120 120 120 120 118 118 118 118 118 118 118 118 118 120 120 118 115 115 114 114 114 114 114 115 115 115 117 117 117 117 117 117 117 117 117 117 118 118 118 118 118 118 118 117 117 117 117 118 118 118 118 118 118 118 118 118 118 118 118 118 120 0 114 0 0 0 0 120 118 118 118 118 118 118 114 114 114 114 115 115 115 115 115 115 115 115 117 117 118 118 120 120 120 120 117 117 117 118 118 118 118 117 117 0 0 0 0 118 118 118 118 118 120 118 118 118 117 115 114 114 114 114 114 114 114 115 115 115 115 115 115 115 114 114 114 114 114 114 114 114 114 114 114 114 114 115 114 114 114 112 112 112 112 112 112 112 112 112 112 112 114 114 115 115 115 115 115 115 0 0 0 0 0 0 0 0 0 0 0 0 0 0 0 0 0 0 0 0 0 0 0 0 0 0 0 0 0 0 0 0 0 0 0 0 0 0 0 0 0 0 0 0 0 0 0 0 0 0 0 0 0 0 0 0 0 0 0 0 0 0 0 0 0 0 0 0 0 0 0 0 0 0 0 0 0 0 0 0 0 0 0 0 0 0 0 0 0 0 0 0 0 0 0 0 0 0 0 0 0 0 0 0 0 0 0 0 0 0 0 0 0 0 0 0 0 0 0 0 0 0 0 0 0 0 0 0 0 0 0 0 0 0 0 0 0 0 0 0 0 0 0 0 0 0 0 0 0 0 0 0 0 0 0
0 0 0 0 0 0 0 103 103 102 102 101 101 100 100 99 99 101 0 0 0 0 0 0 0 0 107 107 0 0 0 0 0 0 0 0 0 0 0 0 0 0 0 0 0 0 0 0 0 0 0 0 0 0 105 105 105 106 105 105 105 106 106 106 105 105 0 0 0 0 0 110 107 107 107 108 108 108 108 110 111 111 111 112 114 114 112 112 112 112 114 114 112 112 112 112 114 114 112 111 111 112 114 114 114 114 114 115 115 115 115 115 115 115 115 114 114 114 114 114 112 112 111 111 111 112 112 112 111 111 111 112 112 112 114 114 115 115 117 118 118 118 117 117 115 115 114 114 114 114 115 115 115 115 115 115 117 115 114 114 114 114 114 114 114 115 115 115 115 115 117 115 115 115 115 115 115 115 115 115 117 117 117 118 118 118 118 118 120 120 120 120 118 118 118 118 118 118 118 118 118 118 118 118 118 118 118 120 121 120 120 120 118 118 118 118 118 118 117 117 117 120 120 120 120 120 118 118 118 118 118 118 118 118 118 118 120 120 120 120 120 120 120 120 120 120 120 120 118 118 118 118 120 120 120 120 118 118 120 118 118 118 118 118 118 117 117 117 115 115 115 115 115 117 117 117 118 118 118 118 118 118 118 120 120 120 118 118 118 118 120 120 118 118 117 117 117 117 117 117 117 118 118 118 118 118 118 118 118 118 118 118 120 120 120 120 120 120 120 120 118 118 118 117 117 117 118 118 118 118 120 120 118 117 115 115 115 115 115 115 117 117 117 117 117 118 117 117 117 117 117 117 118 118 118 120 120 120 120 120 118 118 118 118 118 118 118 118 118 118 120 118 118 118 118 118 118 114 114 0 115 0 0 0 120 118 118 120 120 120 118 118 114 114 115 115 115 115 115 115 115 115 115 117 117 118 118 118 118 120 120 117 117 117 118 118 118 118 118 0 0 0 0 0 0 118 117 117 120 120 118 118 118 117 115 114 114 114 114 114 114 114 114 114 115 115 115 114 114 114 114 114 114 114 114 114 112 112 112 114 114 114 115 114 114 114 114 114 112 112 114 114 114 114 114 114 114 114 115 114 114 115 115 115 114 114 0 0 0 0 0 0 0 0 0 0 0 0 0 0 0 0 0 0 0 0 0 0 0 0 0 0 0 0 0 0 0 0 0 0 0 0 0 0 0 0 0 0 0 0 0 0 0 0 0 0 0 0 0 0 0 0 0 0 0 0 0 0 0 0 0 0 0 0 0 0 0 0 0 0 0 0 0 0 0 0 0 0 0 0 0 0 0 0 0 0 0 0 0 0 0 0 0 0 0 0 0 0 0 0 0 0 0 0 0 0 0 0 0 0 0 0 0 0 0 0 0 0 0 0 0 0 0 0 0 0 0 0 0 0 0 0 0 0 0 0 0 0 0 0 0 0 0 0 0 0 0 0 0 0
0 0 0 0 0 0 0 103 103 102 102 101 101 101 100 100 100 102 0 0 0 0 0 0 0 0 107 107 0 0 0 0 0 0 0 0 0 0 0 0 0 0 0 0 0 0 0 0 0 0 0 0 0 0 105 105 105 106 105 105 105 106 106 106 105 105 0 0 0 0 108 0 110 110 110 110 110 110 110 110 110 110 110 111 112 114 114 112 112 112 114 0 0 112 112 0 0 112 112 112 112 114 114 114 115 114 114 115 115 115 115 115 114 114 114 114 112 112 112 112 112 112 112 111 111 112 112 111 111 111 111 111 112 112 112 114 115 115 115 117 117 118 117 117 117 117 115 115 115 117 117 117 117 117 117 117 117 117 115 115 115 114 114 115 115 115 115 115 115 115 117 117 117 117 115 115 115 117 117 117 117 117 117 118 118 118 118 118 120 118 118 120 118 118 118 118 118 118 118 118 118 118 118 118 118 118 118 120 120 120 120 120 118 118 118 118 118 118 118 120 120 120 120 120 120 120 120 118 118 118 118 118 118 118 118 118 120 120 120 120 120 120 120 120 120 120 120 120 118 118 118 118 120 120 120 120 118 118 118 118 118 118 118 118 118 117 117 117 115 115 115 115 115 117 117 117 118 118 118 118 118 120 120 120 120 118 118 118 118 118 120 120 118 118 118 117 117 117 117 117 118 118 118 118 118 118 118 118 118 118 118 120 120 120 120 120 120 120 120 120 118 118 118 117 117 117 120 120 120 120 120 121 120 117 117 117 117 117 117 117 117 118 118 118 118 118 117 117 118 118 118 118 118 118 120 120 120 120 120 120 118 118 118 118 118 118 118 118 118 118 120 118 118 118 118 118 115 114 114 115 115 117 0 118 118 118 118 120 120 120 118 118 115 115 117 115 115 117 117 117 117 117 117 117 118 118 118 118 118 120 120 117 117 117 118 118 118 118 118 0 0 0 0 0 0 118 117 117 120 120 118 118 118 117 115 115 114 114 114 114 114 114 114 114 114 114 114 114 114 114 114 114 114 114 114 114 112 112 112 0 0 0 115 114 114 115 114 114 114 114 114 114 114 114 114 114 114 114 114 114 114 114 114 114 114 114 0 0 0 0 0 0 0 0 0 0 0 0 0 0 0 0 0 0 0 0 0 0 0 0 0 0 0 0 0 0 0 0 0 0 0 0 0 0 0 0 0 0 0 0 0 0 0 0 0 0 0 0 0 0 0 0 0 0 0 0 0 0 0 0 0 0 0 0 0 0 0 0 0 0 0 0 0 0 0 0 0 0 0 0 0 0 0 0 0 0 0 0 0 0 0 0 0 0 0 0 0 0 0 0 0 0 0 0 0 0 0 0 0 0 0 0 0 0 0 0 0 0 0 0 0 0 0 0 0 0 0 0 0 0 0 0 0 0 0 0 0 0 0 0 0 0 0 0 0 0 0 0 0 0
0 0 0 0 0 0 0 102 102 101 101 101 101 103 101 101 0 0 0 0 0 0 0 0 0 0 0 0 0 0 0 0 0 0 0 0 0 0 0 0 0 0 0 0 0 0 0 0 0 0 0 0 0 0 0 105 105 106 105 105 105 106 106 106 105 105 105 0 0 0 0 108 108 110 110 110 110 110 110 110 110 110 110 111 112 114 112 112 112 114 114 0 0 0 0 0 0 114 112 112 112 115 115 115 115 115 115 115 115 115 115 115 114 114 114 114 112 112 112 112 112 112 112 111 111 112 112 111 111 111 111 111 112 112 112 114 115 115 115 117 117 118 117 117 117 117 117 117 117 117 117 117 117 0 117 117 117 115 115 115 115 115 115 115 115 115 115 115 115 115 115 115 115 115 115 115 117 117 117 117 117 117 117 117 118 118 118 118 118 118 118 120 120 120 118 118 118 118 118 118 118 118 118 118 120 120 120 120 120 120 120 120 120 120 118 118 118 120 118 118 120 120 120 120 120 120 120 118 118 118 118 120 120 118 118 120 120 120 120 120 120 120 120 120 120 120 120 120 118 118 118 120 120 120 120 120 118 118 118 117 117 117 118 118 118 118 117 117 117 115 115 117 117 118 118 118 118 118 118 118 118 120 120 120 120 118 118 118 118 118 120 120 118 118 118 117 117 117 117 117 117 118 118 118 118 118 118 118 118 118 118 120 120 120 120 120 120 120 120 118 118 118 118 115 115 117 118 120 120 120 120 120 120 117 115 115 117 117 117 118 118 118 118 118 118 118 118 118 118 118 118 118 118 120 120 120 120 120 120 120 120 120 120 120 120 118 118 120 120 120 120 118 118 118 118 117 115 115 115 115 117 0 0 118 118 120 120 120 118 118 118 118 117 117 117 115 115 117 117 117 115 115 117 117 118 118 118 118 118 120 118 117 117 117 118 118 118 118 120 0 0 0 0 0 0 118 118 118 118 120 118 118 118 117 115 115 114 114 114 114 112 112 112 112 112 112 112 112 114 114 114 114 115 114 114 114 114 0 0 0 0 0 117 114 114 117 114 114 114 114 114 114 114 114 114 114 114 114 114 114 114 114 114 114 114 0 0 0 0 0 0 0 0 0 0 0 0 0 0 0 0 0 0 0 0 0 0 0 0 0 0 0 0 0 0 0 0 0 0 0 0 0 0 0 0 0 0 0 0 0 0 0 0 0 0 0 0 0 0 0 0 0 0 0 0 0 0 0 0 0 0 0 0 0 0 0 0 0 0 0 0 0 0 0 0 0 0 0 0 0 0 0 0 0 0 0 0 0 0 0 0 0 0 0 0 0 0 0 0 0 0 0 0 0 0 0 0 0 0 0 0 0 0 0 0 0 0 0 0 0 0 0 0 0 0 0 0 0 0 0 0 0 0 0 0 0 0 0 0 0 0 0 0 0 0 0 0 0 0 0
0 0 0 0 0 0 0 102 102 101 101 103 103 102 102 0 0 0 0 0 0 0 0 0 0 0 0 0 0 0 0 0 0 0 0 0 0 0 0 0 0 0 0 0 0 0 0 0 0 0 0 0 0 0 0 0 106 106 105 105 105 106 106 106 105 105 0 0 0 107 0 108 108 110 110 110 110 110 110 110 110 108 108 110 111 112 111 111 112 114 0 0 0 0 0 0 0 114 114 112 112 114 115 115 115 115 115 115 115 115 115 115 114 114 114 114 114 112 112 114 112 112 112 112 112 112 112 111 111 111 111 111 112 112 112 114 115 115 117 118 118 118 118 118 117 117 117 117 117 117 117 117 117 117 117 117 115 115 115 115 115 115 115 115 115 115 115 115 115 115 115 115 115 115 115 115 117 117 117 117 117 117 117 117 118 118 118 118 118 118 120 120 120 120 118 118 118 118 118 118 118 118 118 120 120 120 121 121 120 120 120 120 120 118 118 118 118 118 118 118 120 120 120 120 120 120 120 120 120 120 118 118 120 120 120 120 120 120 120 120 120 120 120 118 118 120 120 120 120 118 118 120 120 120 120 120 120 118 118 117 117 117 118 118 118 118 118 118 118 118 117 117 117 118 118 118 118 118 120 120 120 120 120 120 120 118 118 120 120 120 121 120 118 118 118 118 118 117 117 117 117 118 118 118 118 118 118 118 120 118 118 120 120 120 120 120 120 120 120 118 118 118 118 115 115 117 118 118 120 120 120 120 121 117 115 115 117 117 118 118 118 118 120 120 120 120 118 118 120 118 118 118 120 120 120 120 121 120 120 120 120 120 120 120 120 118 118 120 120 120 120 120 118 118 118 117 117 117 115 115 117 117 118 118 118 120 120 120 118 118 118 118 117 117 117 117 117 117 117 115 115 115 117 117 118 118 118 118 118 118 118 117 117 117 118 118 118 118 118 0 0 0 0 0 0 0 118 118 118 118 118 118 118 117 115 115 115 114 114 114 112 112 112 112 112 112 112 112 114 114 114 114 114 114 114 114 0 0 0 0 0 0 117 117 117 117 117 117 115 115 115 115 115 115 115 114 114 114 114 114 112 112 112 112 114 0 0 0 0 0 0 0 0 0 0 0 0 0 0 0 0 0 0 0 0 0 0 0 0 0 0 0 0 0 0 0 0 0 0 0 0 0 0 0 0 0 0 0 0 0 0 0 0 0 0 0 0 0 0 0 0 0 0 0 0 0 0 0 0 0 0 0 0 0 0 0 0 0 0 0 0 0 0 0 0 0 0 0 0 0 0 0 0 0 0 0 0 0 0 0 0 0 0 0 0 0 0 0 0 0 0 0 0 0 0 0 0 0 0 0 0 0 0 0 0 0 0 0 0 0 0 0 0 0 0 0 0 0 0 0 0 0 0 0 0 0 0 0 0 0 0 0 0 0 0 0 0 0 0 0
0 0 0 0 0 0 0 103 103 103 103 103 103 102 102 103 0 0 0 0 0 0 0 0 0 0 0 0 0 0 0 0 0 0 0 0 0 0 0 0 0 0 0 0 0 0 0 0 0 0 0 0 0 0 0 0 106 105 103 103 103 105 105 106 105 105 0 105 0 107 105 105 108 110 110 110 110 110 110 110 110 108 108 108 110 111 107 107 111 0 0 0 0 0 0 0 0 114 114 112 112 114 115 115 115 115 115 115 115 115 115 115 114 114 114 114 114 114 114 114 112 112 112 112 112 114 114 114 112 112 0 0 112 112 114 115 117 117 118 118 118 118 118 117 117 115 115 115 117 117 117 117 117 117 117 117 115 115 114 114 115 115 115 115 115 115 115 115 115 115 115 117 117 117 117 117 117 117 117 117 117 117 117 117 117 118 118 118 118 118 118 120 120 120 118 118 118 118 118 118 118 120 120 120 120 120 121 121 121 120 120 120 118 118 118 118 118 118 118 118 120 120 120 120 120 120 120 120 120 120 118 118 120 120 120 120 120 120 120 120 118 118 118 118 118 118 120 120 120 118 118 120 120 120 120 120 120 118 118 117 117 118 118 118 118 118 118 118 118 118 118 118 118 118 118 120 120 120 120 120 120 120 120 120 120 120 120 120 118 118 120 120 120 120 118 117 117 117 117 117 118 118 120 120 120 120 120 120 120 120 120 118 118 118 118 118 120 120 120 118 118 118 118 118 117 117 118 118 120 120 120 120 117 117 115 115 117 117 118 118 118 120 120 120 118 118 118 118 118 120 120 120 120 120 120 120 120 120 120 120 120 120 120 120 120 120 120 120 120 120 118 118 118 118 118 118 117 117 115 115 115 118 118 118 118 120 120 118 118 118 118 117 117 118 118 117 115 115 117 115 115 115 117 117 118 118 118 118 118 118 118 115 115 117 118 118 118 118 118 118 0 0 0 0 0 0 118 118 118 118 118 118 118 118 117 117 115 115 114 114 112 112 112 112 0 112 112 112 114 114 114 114 114 114 114 0 0 0 0 0 0 0 0 117 117 118 118 118 117 117 117 117 115 115 115 114 114 114 112 112 112 112 112 112 112 0 0 0 0 0 0 0 0 0 0 0 0 0 0 0 0 0 0 0 0 0 0 0 0 0 0 0 0 0 0 0 0 0 0 0 0 0 0 0 0 0 0 0 0 0 0 0 0 0 0 0 0 0 0 0 0 0 0 0 0 0 0 0 0 0 0 0 0 0 0 0 0 0 0 0 0 0 0 0 0 0 0 0 0 0 0 0 0 0 0 0 0 0 0 0 0 0 0 0 0 0 0 0 0 0 0 0 0 0 0 0 0 0 0 0 0 0 0 0 0 0 0 0 0 0 0 0 0 0 0 0 0 0 0 0 0 0 0 0 0 0 0 0 0 0 0 0 0 0 0 0 0 0 0 0
0 0 0 0 0 0 0 102 102 102 103 102 102 102 102 103 0 0 0 0 0 0 0 0 0 0 0 0 0 0 0 0 0 0 0 0 0 0 0 0 0 0 0 0 0 0 0 0 0 0 0 0 0 0 0 0 103 103 102 102 103 103 103 105 105 105 105 105 107 107 105 105 108 110 111 110 110 110 110 110 110 0 108 108 110 111 107 107 111 0 0 0 0 0 0 0 0 0 117 114 114 115 115 115 115 115 115 115 115 115 115 115 115 115 115 114 114 114 114 114 114 114 114 114 114 114 114 114 114 0 0 0 0 0 0 118 118 118 118 118 118 118 118 117 117 115 115 115 117 117 117 117 117 117 117 117 115 115 114 114 115 114 114 115 115 115 115 115 115 115 115 117 117 117 117 117 117 117 117 117 117 117 117 117 117 118 118 118 118 118 118 120 120 118 0 120 120 118 118 118 118 118 120 120 120 120 121 121 120 120 120 120 118 118 118 118 118 118 118 120 120 120 120 120 120 120 120 120 120 121 121 121 121 120 120 121 121 120 120 120 118 118 118 118 118 118 120 120 118 118 118 118 121 121 120 120 120 118 118 118 118 118 118 118 118 118 120 120 120 120 118 118 118 118 120 120 120 120 120 120 120 120 120 120 120 120 120 120 118 118 120 120 118 118 118 117 117 117 117 117 118 118 118 118 120 120 120 120 118 120 120 118 118 118 118 118 118 120 120 118 118 118 118 118 118 118 120 120 120 120 120 120 118 117 117 117 117 118 118 118 118 120 120 120 118 118 118 118 118 120 120 120 120 120 120 120 120 120 120 120 120 120 120 120 118 118 120 120 120 118 118 118 118 118 118 117 117 117 117 117 117 118 118 118 118 118 118 118 118 118 117 117 117 117 117 115 115 115 115 115 115 115 117 117 118 118 118 118 118 118 115 115 115 117 118 118 118 118 118 118 120 120 120 0 0 0 118 118 118 118 118 118 118 118 117 117 115 115 115 114 114 114 114 0 0 0 114 114 115 115 114 114 115 114 114 0 0 0 0 0 0 0 0 117 117 118 118 118 117 117 117 117 115 115 115 114 114 114 112 112 112 112 112 112 112 0 0 0 0 0 0 0 0 0 0 0 0 0 0 0 0 0 0 0 0 0 0 0 0 0 0 0 0 0 0 0 0 0 0 0 0 0 0 0 0 0 0 0 0 0 0 0 0 0 0 0 0 0 0 0 0 0 0 0 0 0 0 0 0 0 0 0 0 0 0 0 0 0 0 0 0 0 0 0 0 0 0 0 0 0 0 0 0 0 0 0 0 0 0 0 0 0 0 0 0 0 0 0 0 0 0 0 0 0 0 0 0 0 0 0 0 0 0 0 0 0 0 0 0 0 0 0 0 0 0 0 0 0 0 0 0 0 0 0 0 0 0 0 0 0 0 0 0 0 0 0 0 0 0 0
0 0 0 0 0 0 0 101 101 101 102 102 102 102 102 0 0 0 0 0 0 0 0 0 0 0 0 0 0 0 0 0 0 0 0 0 0 0 0 0 0 0 0 0 0 0 0 0 0 0 0 0 0 0 0 0 103 102 102 102 103 103 103 105 105 105 105 105 106 107 105 105 107 108 110 110 108 108 110 111 111 111 111 111 111 111 111 111 111 0 0 0 0 0 0 0 0 0 118 117 117 117 117 117 117 115 115 115 115 115 115 115 115 115 115 114 114 114 114 114 114 114 114 114 114 114 114 114 114 0 0 0 0 0 0 0 118 118 118 118 118 118 118 118 115 115 115 115 117 117 117 117 117 117 117 117 117 115 115 115 115 114 114 115 115 115 117 115 115 115 115 117 117 117 117 117 117 117 117 117 117 117 117 117 117 117 117 117 117 118 118 118 118 118 120 120 120 118 118 118 118 118 120 120 120 120 120 120 120 118 118 120 118 118 118 118 118 118 118 118 118 120 120 118 118 120 120 120 120 120 120 120 121 120 120 0 0 0 120 120 120 120 118 118 120 120 120 120 118 118 118 118 118 121 120 120 120 120 120 118 118 118 118 118 120 120 120 120 120 120 120 120 120 118 118 118 118 120 120 120 120 120 120 120 120 121 120 120 120 120 121 120 118 118 118 118 118 117 117 117 118 118 118 118 120 120 120 120 118 118 118 118 118 118 118 118 118 120 120 118 118 118 118 120 120 120 120 120 120 120 120 120 118 117 117 117 118 118 118 120 120 120 120 120 118 118 118 118 118 120 120 120 120 120 120 120 120 120 120 120 120 120 120 118 118 118 120 120 118 118 118 118 118 118 117 117 117 117 117 117 117 118 118 118 118 118 118 118 118 118 117 117 117 117 117 115 114 114 115 115 115 115 117 117 118 118 118 118 118 0 115 115 115 117 118 118 118 118 118 120 120 120 120 0 121 121 118 118 118 118 118 118 118 118 117 117 117 117 117 0 0 0 0 0 0 0 114 114 115 115 114 114 114 115 115 0 0 0 0 0 0 0 118 117 117 118 118 118 118 117 117 115 115 115 114 114 114 114 114 114 114 114 114 112 112 0 0 0 0 0 0 0 0 0 0 0 0 0 0 0 0 0 0 0 0 0 0 0 0 0 0 0 0 0 0 0 0 0 0 0 0 0 0 0 0 0 0 0 0 0 0 0 0 0 0 0 0 0 0 0 0 0 0 0 0 0 0 0 0 0 0 0 0 0 0 0 0 0 0 0 0 0 0 0 0 0 0 0 0 0 0 0 0 0 0 0 0 0 0 0 0 0 0 0 0 0 0 0 0 0 0 0 0 0 0 0 0 0 0 0 0 0 0 0 0 0 0 0 0 0 0 0 0 0 0 0 0 0 0 0 0 0 0 0 0 0 0 0 0 0 0 0 0 0 0 0 0 0 0 0
0 0 0 0 0 0 0 101 101 101 101 100 100 0 0 0 0 0 0 0 0 0 0 0 0 0 0 0 0 0 0 0 0 0 0 0 0 0 0 0 0 0 0 0 0 0 0 0 0 0 0 0 0 0 0 0 0 102 102 102 103 103 103 105 105 105 105 105 106 107 107 107 107 107 108 108 107 107 107 108 108 0 0 0 0 0 0 0 0 0 0 0 0 0 0 0 0 0 120 117 117 117 117 117 117 115 115 115 115 115 117 115 115 115 115 114 114 115 114 114 115 115 115 115 114 114 115 115 115 0 0 0 0 0 0 0 118 118 118 118 118 118 118 118 115 115 115 115 115 117 117 115 115 117 117 117 117 117 117 115 115 115 115 115 115 115 117 115 115 115 115 117 117 117 117 117 117 117 117 117 117 117 117 117 117 117 117 117 117 118 118 118 118 120 120 118 118 118 118 118 118 118 120 120 120 120 120 120 120 118 118 120 120 120 118 118 118 118 118 118 118 118 118 118 118 118 120 120 120 120 120 120 121 120 120 0 0 0 120 0 120 120 120 120 120 120 120 120 120 118 118 118 118 118 120 120 120 120 120 120 118 118 118 118 120 120 120 120 120 120 120 120 120 118 118 118 118 120 120 120 120 120 120 120 120 121 120 120 121 121 123 120 118 118 118 118 118 118 118 118 118 120 120 120 120 118 118 117 117 117 117 117 117 118 118 118 118 118 118 118 118 120 120 120 120 120 120 120 120 120 120 120 118 118 118 118 120 120 120 120 120 120 120 120 120 120 120 120 120 120 120 120 120 120 120 120 120 120 120 120 120 120 120 118 118 120 120 120 118 118 118 118 118 117 117 115 115 117 117 117 117 117 118 118 120 120 120 118 118 118 118 118 118 117 117 115 114 114 115 115 115 115 117 118 118 120 120 120 0 0 115 115 115 117 118 118 118 118 120 120 121 120 120 121 121 121 125 118 118 118 118 118 118 118 117 117 117 117 117 0 0 0 0 0 0 0 114 114 115 115 114 114 114 114 115 0 0 0 0 0 0 0 118 118 118 118 118 118 118 117 115 115 115 115 114 114 114 114 114 114 114 114 117 117 0 0 0 0 0 0 0 0 0 0 0 0 0 0 0 0 0 0 0 0 0 0 0 0 0 0 0 0 0 0 0 0 0 0 0 0 0 0 0 0 0 0 0 0 0 0 0 0 0 0 0 0 0 0 0 0 0 0 0 0 0 0 0 0 0 0 0 0 0 0 0 0 0 0 0 0 0 0 0 0 0 0 0 0 0 0 0 0 0 0 0 0 0 0 0 0 0 0 0 0 0 0 0 0 0 0 0 0 0 0 0 0 0 0 0 0 0 0 0 0 0 0 0 0 0 0 0 0 0 0 0 0 0 0 0 0 0 0 0 0 0 0 0 0 0 0 0 0 0 0 0 0 0 0 0 0
0 0 0 0 0 0 0 101 101 100 100 100 100 0 0 0 0 0 0 0 0 0 0 0 0 0 0 0 0 0 0 0 0 0 0 0 0 0 0 0 0 0 0 0 0 0 0 0 0 0 0 0 0 0 0 0 0 103 103 103 103 103 103 105 105 105 105 105 106 107 106 106 106 106 107 107 107 107 107 108 108 0 0 0 0 0 0 0 0 0 0 0 0 0 0 0 0 130 120 117 117 117 117 117 117 115 115 115 115 115 117 115 115 115 115 115 115 115 115 115 115 115 115 115 115 115 115 115 115 0 0 0 0 0 0 0 118 118 118 118 118 118 118 118 115 115 115 115 115 115 115 115 115 115 117 117 117 117 117 115 115 115 115 115 115 115 115 114 114 114 114 114 117 117 117 117 117 117 117 117 117 117 117 117 117 118 118 118 118 118 118 118 118 120 120 118 118 118 118 118 118 118 118 118 118 120 120 120 120 120 120 120 120 120 120 120 120 120 118 118 118 118 118 118 118 118 120 120 121 121 120 120 121 120 120 0 0 0 0 0 0 120 118 118 120 120 120 120 120 120 120 118 118 118 120 121 121 121 120 120 120 120 120 120 120 120 120 120 120 120 120 120 120 120 120 120 120 120 120 120 120 120 120 120 120 120 120 120 121 121 121 121 120 120 120 120 120 118 118 118 120 120 120 120 118 118 118 117 117 117 117 117 117 117 117 117 117 118 118 118 118 120 120 120 120 120 120 120 120 120 120 120 120 120 120 120 120 120 120 120 120 120 120 120 120 120 120 120 120 120 120 120 120 120 120 120 118 118 120 120 120 120 120 120 120 120 120 118 118 118 118 118 118 117 117 115 115 117 117 117 117 117 118 118 118 118 118 118 118 118 118 118 118 117 117 115 114 114 115 115 115 115 117 118 120 0 120 0 0 0 115 115 115 117 118 118 118 118 120 120 121 121 121 121 121 125 125 125 118 118 118 117 117 117 118 118 117 117 118 0 0 0 0 0 0 0 0 115 115 115 115 115 114 114 114 0 0 0 0 0 0 0 118 118 118 118 118 118 117 115 114 114 115 114 114 114 114 114 114 114 114 114 117 117 0 0 0 0 0 0 0 0 0 0 0 0 0 0 0 0 0 0 0 0 0 0 0 0 0 0 0 0 0 0 0 0 0 0 0 0 0 0 0 0 0 0 0 0 0 0 0 0 0 0 0 0 0 0 0 0 0 0 0 0 0 0 0 0 0 0 0 0 0 0 0 0 0 0 0 0 0 0 0 0 0 0 0 0 0 0 0 0 0 0 0 0 0 0 0 0 0 0 0 0 0 0 0 0 0 0 0 0 0 0 0 0 0 0 0 0 0 0 0 0 0 0 0 0 0 0 0 0 0 0 0 0 0 0 0 0 0 0 0 0 0 0 0 0 0 0 0 0 0 0 0 0 0 0 0 0
0 0 0 0 0 0 0 101 101 100 100 100 100 0 0 0 0 0 0 0 0 0 0 0 0 0 0 0 0 0 0 0 0 0 0 0 0 0 0 0 0 0 0 0 0 0 0 0 0 0 0 0 0 0 0 0 0 0 103 103 103 103 105 105 106 106 106 106 106 107 106 106 106 106 107 107 108 108 108 108 110 0 111 111 111 112 112 112 0 0 0 0 0 0 0 0 0 130 130 117 117 117 117 117 117 115 115 115 115 115 117 115 115 115 115 115 115 115 115 115 115 115 115 115 115 115 115 115 115 115 0 0 0 0 0 0 0 118 118 118 118 118 118 118 117 115 115 115 115 115 115 114 114 115 117 117 117 117 117 115 115 115 115 114 114 115 115 114 114 114 114 114 115 117 117 117 117 117 117 117 117 117 117 117 117 118 118 118 118 118 118 118 120 120 118 118 118 118 118 118 118 117 117 117 117 118 118 118 118 120 120 120 120 120 120 120 118 118 118 118 118 118 118 118 118 118 120 120 121 121 120 120 121 123 0 0 0 0 0 0 118 118 118 118 120 120 120 121 120 120 120 120 121 121 121 121 121 121 120 120 120 120 120 120 120 120 120 120 120 120 120 120 120 120 120 120 118 118 118 118 118 120 120 120 120 120 120 120 121 121 121 121 120 120 120 120 120 120 120 120 120 120 120 120 118 118 118 117 117 117 118 118 118 117 117 117 117 118 118 118 118 120 120 120 120 120 120 120 120 120 120 120 120 120 120 120 120 120 120 120 120 120 120 120 118 118 118 118 120 120 120 120 120 120 120 120 118 118 120 120 120 120 120 120 120 120 118 118 118 118 118 118 118 117 117 117 117 117 117 117 117 117 118 118 118 118 118 118 118 118 118 118 118 117 117 115 115 115 115 115 117 117 118 120 120 0 0 0 0 117 117 117 117 117 118 118 118 118 118 120 120 120 120 120 121 125 125 125 118 118 118 117 117 117 118 118 118 118 0 0 0 0 0 0 0 0 0 115 115 115 115 115 114 114 0 0 0 0 0 0 0 0 120 120 120 120 118 117 117 115 114 114 115 114 114 114 115 115 115 115 114 114 0 0 0 0 0 0 0 0 0 0 0 0 0 0 0 0 0 0 0 0 0 0 0 0 0 0 0 0 0 0 0 0 0 0 0 0 0 0 0 0 0 0 0 0 0 0 0 0 0 0 0 0 0 0 0 0 0 0 0 0 0 0 0 0 0 0 0 0 0 0 0 0 0 0 0 0 0 0 0 0 0 0 0 0 0 0 0 0 0 0 0 0 0 0 0 0 0 0 0 0 0 0 0 0 0 0 0 0 0 0 0 0 0 0 0 0 0 0 0 0 0 0 0 0 0 0 0 0 0 0 0 0 0 0 0 0 0 0 0 0 0 0 0 0 0 0 0 0 0 0 0 0 0 0 0 0 0 0
0 0 0 0 0 0 0 101 101 101 101 101 101 0 0 0 0 0 0 0 0 0 0 0 0 0 0 0 0 0 0 0 0 0 0 0 0 0 0 0 0 0 0 0 0 0 0 0 0 0 0 0 0 0 0 0 0 0 0 103 103 103 103 105 106 106 106 106 107 107 107 106 106 106 107 108 108 108 108 108 110 110 111 111 111 111 112 112 112 114 114 0 0 0 0 0 0 0 0 117 115 115 115 117 117 117 117 115 115 117 117 115 115 115 115 115 117 117 115 115 117 117 115 115 115 115 115 115 115 115 0 0 0 0 0 0 0 114 118 118 117 117 117 117 118 117 115 115 115 115 114 114 114 114 115 115 117 117 117 115 115 115 115 114 114 115 117 115 115 115 114 114 115 117 117 117 117 117 117 117 117 117 117 117 117 117 118 118 118 120 120 120 118 118 118 118 118 118 118 118 118 117 117 117 115 115 117 117 118 120 120 120 121 121 120 120 118 118 118 117 117 117 117 118 118 118 120 120 121 121 121 121 121 121 0 0 123 0 0 0 118 118 118 118 118 120 120 121 121 120 120 123 125 125 125 123 123 121 120 120 120 120 120 120 120 120 120 120 120 120 120 120 120 118 118 118 118 118 118 118 118 118 118 120 120 120 120 120 121 121 123 121 120 120 120 121 120 120 120 120 120 120 120 120 118 118 118 118 117 117 117 120 120 118 117 117 117 118 118 118 118 120 120 120 120 120 120 120 120 120 120 120 120 120 120 120 120 120 120 120 120 120 120 120 118 118 118 118 118 120 120 120 120 120 120 118 118 118 118 120 120 120 120 120 120 120 118 118 118 118 118 118 118 117 115 115 117 117 117 117 117 117 118 118 118 118 118 118 118 118 118 118 118 118 118 117 115 115 114 114 114 114 118 120 120 0 0 0 0 0 115 115 117 117 117 118 118 118 118 118 118 120 120 120 121 121 121 121 118 118 118 117 115 115 117 117 117 117 0 0 0 0 0 0 0 0 0 117 117 117 117 115 114 114 115 115 115 112 112 114 114 114 118 118 120 120 118 117 117 115 115 115 115 115 115 115 115 115 117 118 118 118 0 0 0 0 0 0 0 0 0 0 0 0 0 0 0 0 0 0 0 0 0 0 0 0 0 0 0 0 0 0 0 0 0 0 0 0 0 0 0 0 0 0 0 0 0 0 0 0 0 0 0 0 0 0 0 0 0 0 0 0 0 0 0 0 0 0 0 0 0 0 0 0 0 0 0 0 0 0 0 0 0 0 0 0 0 0 0 0 0 0 0 0 0 0 0 0 0 0 0 0 0 0 0 0 0 0 0 0 0 0 0 0 0 0 0 0 0 0 0 0 0 0 0 0 0 0 0 0 0 0 0 0 0 0 0 0 0 0 0 0 0 0 0 0 0 0 0 0 0 0 0 0 0 0 0 0 0 0
0 0 0 0 0 0 0 102 102 102 102 102 102 103 0 0 0 0 0 0 0 0 0 0 0 0 0 0 0 0 0 0 0 0 0 0 0 0 0 0 0 0 0 0 0 0 0 0 0 0 0 0 0 0 0 0 0 0 0 103 103 103 103 105 106 106 106 106 107 107 107 107 107 107 107 108 108 108 108 111 110 110 111 111 111 111 112 112 112 112 114 115 117 117 117 117 0 0 0 0 115 115 115 117 117 118 118 117 117 118 118 117 117 115 115 115 115 115 115 115 115 115 115 115 115 115 115 115 115 115 0 0 0 0 0 0 0 114 114 114 114 115 115 117 118 117 115 115 115 115 114 114 114 114 115 115 117 117 117 117 117 117 117 115 115 115 117 115 115 115 115 115 117 117 117 117 117 117 117 117 117 117 117 117 117 117 118 118 118 120 120 120 118 118 120 118 118 118 118 118 118 117 117 117 115 115 117 117 118 120 120 123 125 121 120 120 118 118 118 117 117 117 117 118 118 120 120 120 123 123 123 123 123 121 121 123 123 0 0 0 118 118 120 118 118 120 120 120 121 121 121 125 121 121 123 123 121 121 121 120 120 121 121 120 120 120 120 120 120 120 120 118 118 118 118 118 118 118 118 118 118 118 118 120 120 120 121 121 121 121 123 121 121 121 121 121 120 120 120 120 120 118 118 120 118 118 118 118 117 117 117 118 118 118 118 118 118 120 118 118 120 120 120 121 120 120 120 120 120 120 120 120 120 120 120 120 120 120 120 120 120 120 120 120 118 118 118 118 118 118 118 118 120 120 120 118 118 118 118 120 120 120 120 120 120 120 118 118 118 118 118 118 118 117 115 115 117 117 117 117 117 117 118 118 118 118 118 118 118 118 118 117 117 117 117 117 115 115 114 114 114 114 118 120 120 0 0 0 117 0 115 115 117 117 117 117 117 117 117 117 117 118 118 118 120 121 121 121 118 118 118 117 114 114 115 115 117 117 0 0 0 0 0 0 0 0 0 117 117 117 117 117 115 115 115 115 112 112 112 112 112 112 117 117 118 118 118 117 117 115 115 115 115 115 115 115 115 115 117 118 118 0 0 0 0 0 0 0 0 0 0 0 0 0 0 0 0 0 0 0 0 0 0 0 0 0 0 0 0 0 0 0 0 0 0 0 0 0 0 0 0 0 0 0 0 0 0 0 0 0 0 0 0 0 0 0 0 0 0 0 0 0 0 0 0 0 0 0 0 0 0 0 0 0 0 0 0 0 0 0 0 0 0 0 0 0 0 0 0 0 0 0 0 0 0 0 0 0 0 0 0 0 0 0 0 0 0 0 0 0 0 0 0 0 0 0 0 0 0 0 0 0 0 0 0 0 0 0 0 0 0 0 0 0 0 0 0 0 0 0 0 0 0 0 0 0 0 0 0 0 0 0 0 0 0 0 0 0 0 0
0 0 0 0 0 0 0 103 103 103 103 103 103 103 0 0 0 0 0 0 0 0 0 0 0 0 0 0 0 0 0 0 0 0 0 0 0 0 0 0 0 0 0 0 0 0 0 0 0 0 0 0 0 0 0 0 0 0 0 0 103 103 103 105 105 107 106 106 107 107 108 108 108 108 108 110 110 110 111 111 111 111 111 111 112 112 112 112 112 112 114 115 115 115 115 115 0 117 117 0 117 117 117 117 114 114 115 117 117 117 117 115 115 115 115 115 115 115 115 115 115 115 115 115 115 115 115 115 115 115 115 115 115 114 114 114 114 114 114 114 114 114 115 115 117 117 117 117 115 115 114 114 114 114 114 114 115 117 117 117 117 117 117 117 115 115 117 117 117 117 117 117 118 118 117 117 117 118 118 118 117 117 117 117 117 117 118 118 120 120 120 120 118 118 118 118 118 118 118 118 118 117 117 117 117 117 117 117 118 120 121 123 125 123 121 121 121 121 117 117 115 115 115 117 118 118 120 120 121 121 121 121 121 121 121 121 121 121 0 0 120 120 120 120 120 120 120 120 121 121 121 121 121 121 123 123 121 121 121 121 121 121 121 121 120 120 120 120 118 118 120 118 118 118 117 117 117 117 117 117 117 117 118 118 120 120 121 121 121 121 123 121 121 121 121 121 120 120 120 120 120 118 118 120 118 118 118 118 117 117 117 118 118 118 118 118 118 120 120 120 120 120 120 121 121 121 121 120 120 120 120 120 120 120 120 120 120 120 120 120 120 120 120 120 118 118 118 118 118 118 118 118 120 120 120 120 118 118 120 120 120 120 120 120 120 120 118 118 118 118 118 118 118 117 117 117 117 117 117 117 117 117 118 118 118 118 118 118 120 118 118 117 117 117 117 117 115 115 114 114 114 114 118 120 0 0 120 120 117 117 117 117 117 117 117 115 115 115 115 115 117 117 118 118 120 121 121 121 118 118 117 115 114 114 115 115 117 117 118 0 0 0 0 0 0 0 0 118 118 118 117 117 115 115 115 115 112 112 112 112 112 117 117 117 118 118 118 117 117 115 115 115 115 115 115 115 117 117 117 117 117 110 0 0 0 0 0 0 0 0 0 0 0 0 0 0 0 0 0 0 0 0 0 0 0 0 0 0 0 0 0 0 0 0 0 0 0 0 0 0 0 0 0 0 0 0 0 0 0 0 0 0 0 0 0 0 0 0 0 0 0 0 0 0 0 0 0 0 0 0 0 0 0 0 0 0 0 0 0 0 0 0 0 0 0 0 0 0 0 0 0 0 0 0 0 0 0 0 0 0 0 0 0 0 0 0 0 0 0 0 0 0 0 0 0 0 0 0 0 0 0 0 0 0 0 0 0 0 0 0 0 0 0 0 0 0 0 0 0 0 0 0 0 0 0 0 0 0 0 0 0 0 0 0 0 0 0 0 0 0
0 0 0 0 0 0 0 103 103 103 103 105 0 0 0 0 0 0 0 0 0 0 0 0 0 0 0 0 0 0 0 0 0 0 0 0 0 0 0 0 0 0 0 0 0 0 0 0 0 0 0 0 0 0 0 0 0 0 0 0 105 105 105 105 105 107 106 106 107 107 108 108 110 108 108 110 110 110 111 111 111 112 112 112 112 112 112 112 112 112 114 115 115 115 115 115 117 117 0 0 117 117 117 117 114 114 115 117 117 117 117 115 115 115 115 115 115 115 115 115 115 115 115 115 115 115 117 117 115 115 115 115 115 114 114 114 114 114 114 114 114 114 115 115 117 117 117 117 115 114 114 114 114 114 114 114 115 117 117 117 117 117 117 117 115 115 117 117 117 117 117 117 118 118 117 117 118 118 118 118 117 117 117 117 117 118 118 118 120 120 120 120 118 118 118 118 118 118 118 118 118 117 117 117 117 117 117 117 118 120 121 121 125 125 125 0 120 0 115 0 115 115 115 117 118 118 118 118 121 121 121 121 121 121 121 121 121 121 125 120 120 120 120 118 118 120 121 121 121 121 121 121 121 121 121 121 121 121 121 121 121 121 120 120 120 121 121 120 118 118 118 118 118 118 117 117 117 117 117 117 117 117 118 118 118 118 120 121 121 121 123 121 121 121 121 121 121 121 121 121 120 118 118 120 118 118 118 118 118 118 118 118 118 118 118 118 118 120 120 120 120 120 120 121 121 121 121 121 121 120 120 120 120 120 120 120 120 121 120 120 120 120 120 120 118 118 118 118 118 118 118 118 120 120 120 120 118 118 120 118 118 118 120 120 120 120 118 118 118 118 118 120 118 117 117 117 118 117 117 117 117 117 118 118 118 118 118 118 120 118 118 117 117 117 117 117 115 115 114 114 114 114 118 118 118 118 120 120 118 117 117 117 117 117 117 115 115 115 115 115 117 117 118 118 120 121 121 118 117 117 117 115 114 114 117 117 118 118 118 120 120 121 0 0 128 128 128 128 118 118 118 118 115 115 117 117 112 112 112 114 114 117 117 118 118 120 118 117 117 117 115 115 117 115 115 117 117 115 114 110 110 110 111 111 111 0 0 0 0 0 0 0 0 0 0 0 0 0 0 0 0 0 0 0 0 0 0 0 0 0 0 0 0 0 0 0 0 0 0 0 0 0 0 0 0 0 0 0 0 0 0 0 0 0 0 0 0 0 0 0 0 0 0 0 0 0 0 0 0 0 0 0 0 0 0 0 0 0 0 0 0 0 0 0 0 0 0 0 0 0 0 0 0 0 0 0 0 0 0 0 0 0 0 0 0 0 0 0 0 0 0 0 0 0 0 0 0 0 0 0 0 0 0 0 0 0 0 0 0 0 0 0 0 0 0 0 0 0 0 0 0 0 0 0 0 0 0 0 0 0 0 0 0 0 0 0 0 0 0 0
0 0 0 0 0 0 0 103 103 105 105 106 0 0 0 0 0 0 0 0 0 0 0 0 0 0 0 0 0 0 0 0 0 0 0 0 0 0 0 0 0 0 0 0 0 0 0 0 0 0 0 0 0 0 0 0 0 0 0 0 105 105 105 106 107 107 107 107 107 107 107 108 110 108 108 110 110 110 111 111 112 112 114 112 112 112 112 111 111 112 112 114 115 115 115 117 117 117 117 0 0 0 64 114 115 115 115 118 117 117 117 117 115 115 115 115 59 59 114 114 115 115 115 115 115 115 117 117 117 117 117 117 117 115 114 114 114 114 114 114 114 114 115 115 117 117 117 117 115 114 114 114 114 114 114 114 115 117 117 117 117 117 118 117 115 115 117 117 117 117 117 117 118 118 118 118 118 118 118 118 117 117 117 118 118 118 118 120 120 120 120 120 118 118 118 118 118 118 118 118 118 118 117 117 117 117 117 117 118 120 120 121 121 120 120 0 0 0 0 0 115 115 118 118 118 118 118 118 121 121 121 121 121 121 121 121 121 125 125 120 120 118 118 118 118 118 120 120 120 120 121 121 121 121 121 121 121 121 121 120 120 120 120 120 120 120 120 120 118 118 118 118 118 118 117 117 117 117 115 115 115 117 117 118 118 118 120 121 121 121 123 123 121 121 121 121 121 121 121 123 121 120 120 120 120 120 120 118 118 118 118 118 118 120 120 120 120 120 121 120 120 120 120 121 121 121 121 121 121 121 120 120 120 120 120 120 120 120 120 120 120 120 120 120 118 118 118 118 118 118 118 118 120 120 120 120 118 118 118 118 118 118 120 120 120 118 118 118 118 120 120 120 118 118 118 118 118 117 117 117 117 117 117 117 117 118 118 118 120 118 118 118 118 118 117 114 114 114 114 114 115 115 118 118 118 118 120 120 118 117 117 117 117 117 115 115 115 115 115 115 117 117 118 118 120 120 118 118 117 117 117 117 114 114 117 117 118 118 118 120 120 121 121 121 125 126 126 120 118 118 118 118 118 118 117 115 114 114 114 114 115 117 118 118 118 120 118 118 117 117 115 115 117 115 115 117 117 115 114 110 110 110 110 110 110 0 0 0 0 0 0 0 0 0 0 0 0 0 0 0 0 0 0 0 0 0 0 0 0 0 0 0 0 0 0 0 0 0 0 0 0 0 0 0 0 0 0 0 0 0 0 0 0 0 0 0 0 0 0 0 0 0 0 0 0 0 0 0 0 0 0 0 0 0 0 0 0 0 0 0 0 0 0 0 0 0 0 0 0 0 0 0 0 0 0 0 0 0 0 0 0 0 0 0 0 0 0 0 0 0 0 0 0 0 0 0 0 0 0 0 0 0 0 0 0 0 0 0 0 0 0 0 0 0 0 0 0 0 0 0 0 0 0 0 0 0 0 0 0 0 0 0 0 0 0 0 0 0 0 0
0 0 0 0 0 0 0 103 103 106 106 107 0 0 0 0 0 0 0 0 0 0 0 0 0 0 0 0 0 0 0 0 0 0 0 0 0 0 0 0 66 66 0 0 0 0 0 0 0 0 0 0 0 0 0 0 0 0 0 0 0 106 106 107 107 107 107 107 107 107 107 108 110 110 110 110 110 110 111 111 112 112 112 112 112 112 112 110 110 111 112 114 115 115 115 117 117 117 117 65 64 64 64 114 114 114 115 115 115 115 117 115 115 114 114 114 59 59 59 114 114 114 115 115 115 115 117 117 117 117 117 117 117 114 114 114 112 112 112 114 114 114 115 117 118 118 118 118 115 114 114 114 114 114 114 114 115 117 117 117 117 118 118 118 117 117 118 118 118 118 118 118 118 118 117 117 118 118 118 118 118 117 117 118 118 118 118 118 120 121 120 120 120 118 118 118 118 118 118 118 118 118 118 117 117 117 117 117 118 120 120 120 120 120 120 0 0 0 0 0 115 115 118 118 118 118 118 118 120 121 121 121 123 121 121 121 125 125 120 120 120 118 118 118 118 118 120 120 120 120 121 121 121 121 121 121 121 120 120 120 120 120 120 120 120 120 120 120 120 120 120 120 118 118 118 117 117 117 115 115 115 115 117 117 118 118 120 121 121 121 121 121 121 121 121 121 121 121 121 121 123 120 120 121 120 120 120 120 118 118 118 118 118 120 120 120 120 121 121 121 120 120 120 123 123 120 120 120 120 120 120 120 118 118 120 120 120 120 120 120 120 120 120 120 117 117 117 118 118 118 118 118 118 118 120 118 118 118 118 118 118 118 118 118 118 118 118 118 118 118 120 120 118 117 117 118 118 118 117 115 115 115 115 115 117 117 118 118 120 118 118 118 118 118 118 114 114 114 114 114 115 115 118 118 118 118 118 118 118 118 118 118 118 117 115 115 115 115 115 115 115 117 118 118 120 120 118 118 117 117 117 117 117 117 120 120 118 118 118 120 120 120 120 120 121 126 120 120 117 117 118 118 117 117 115 115 115 114 114 115 115 118 118 118 120 120 120 118 118 117 117 117 117 117 117 118 117 117 114 111 110 110 110 110 110 0 0 0 0 0 0 0 0 0 0 0 0 0 0 0 0 0 0 0 0 0 0 0 0 0 0 0 0 0 0 0 0 0 0 0 0 0 0 0 0 0 0 0 0 0 0 0 0 0 0 0 0 0 0 0 0 0 0 0 0 0 0 0 0 0 0 0 0 0 0 0 0 0 0 0 0 0 0 0 0 0 0 0 0 0 0 0 0 0 0 0 0 0 0 0 0 0 0 0 0 0 0 0 0 0 0 0 0 0 0 0 0 0 0 0 0 0 0 0 0 0 0 0 0 0 0 0 0 0 0 0 0 0 0 0 0 0 0 0 0 0 0 0 0 0 0 0 0 0 0 0 0 0 0 0
0 0 0 0 0 0 0 103 103 106 0 0 0 0 0 0 0 0 0 0 0 0 0 0 0 0 0 0 0 0 0 0 0 0 0 0 0 0 0 65 65 65 65 65 65 0 0 0 0 0 0 0 0 0 0 0 0 0 0 0 0 107 107 105 105 107 105 105 106 106 107 107 108 108 65 65 110 110 111 112 112 112 112 112 112 112 111 110 110 110 112 114 115 115 115 118 65 65 65 65 64 64 64 64 114 114 115 115 115 115 117 115 115 114 114 59 59 59 59 60 114 114 115 115 115 115 117 117 117 115 115 115 115 114 114 114 112 112 112 114 114 114 115 115 117 118 118 118 115 114 114 114 114 114 114 114 115 117 118 118 118 120 120 120 120 123 123 123 123 125 125 118 118 118 117 117 118 118 118 118 118 117 117 118 118 118 118 118 120 120 120 120 120 120 118 118 118 118 118 118 118 117 117 117 117 117 117 117 117 120 120 120 120 120 120 0 0 0 0 0 118 118 120 120 118 118 120 120 120 121 121 121 121 121 121 121 125 125 120 120 118 118 118 118 118 118 120 120 120 120 121 121 120 121 121 120 120 120 120 120 120 120 120 120 120 120 120 120 120 120 120 120 118 118 118 117 117 117 114 114 115 115 117 117 117 118 120 121 121 121 121 120 120 120 120 121 121 121 121 121 121 121 121 121 120 120 120 120 120 118 118 118 120 120 120 120 120 121 121 121 121 120 120 121 123 120 120 120 120 120 120 120 118 118 120 120 120 121 120 120 120 120 120 118 117 117 117 117 0 0 0 118 118 118 118 118 118 118 118 118 118 118 118 118 118 118 118 118 118 118 118 118 118 117 117 118 118 118 117 115 115 115 115 115 117 117 118 118 120 120 120 120 120 120 112 112 112 112 114 115 115 117 118 118 118 118 118 118 118 117 117 118 118 117 115 114 114 115 115 115 115 117 117 118 118 118 118 118 117 117 117 117 117 0 120 120 118 118 118 120 120 120 120 120 121 121 120 120 117 117 118 118 117 117 115 115 115 115 115 115 117 117 118 118 120 120 120 120 118 118 118 117 117 117 117 118 118 117 115 112 112 112 112 112 112 0 0 0 0 0 0 0 0 0 0 0 0 0 0 0 0 0 0 0 0 0 0 0 0 0 0 0 0 0 0 0 0 0 0 0 0 0 0 0 0 0 0 0 0 0 0 0 0 0 0 0 0 0 0 0 0 0 0 0 0 0 0 0 0 0 0 0 0 0 0 0 0 0 0 0 0 0 0 0 0 0 0 0 0 0 0 0 0 0 0 0 0 0 0 0 0 0 0 0 0 0 0 0 0 0 0 0 0 0 0 0 0 0 0 0 0 0 0 0 0 0 0 0 0 0 0 0 0 0 0 0 0 0 0 0 0 0 0 0 0 0 0 0 0 0 0 0 0 0 0 0 0 0 0 0
0 0 0 0 0 0 0 65 65 107 0 0 0 0 0 0 0 0 0 0 0 0 0 67 67 0 0 0 0 0 0 0 0 0 0 0 0 0 65 65 65 65 65 65 65 65 0 0 0 0 0 0 0 0 0 0 0 0 0 0 0 0 103 103 103 105 105 105 106 106 106 107 65 65 65 65 65 65 65 65 114 114 114 112 111 110 108 108 108 108 111 112 63 63 114 118 65 65 65 65 64 64 64 65 64 64 64 64 115 115 117 117 118 115 115 59 59 60 60 60 115 115 115 115 115 115 117 117 117 115 115 115 115 114 114 114 112 112 114 114 114 114 115 115 115 118 118 118 117 115 115 115 115 115 115 115 117 118 118 118 118 120 120 120 120 123 123 123 125 125 125 118 118 118 117 117 117 118 118 118 118 118 118 118 118 117 117 118 118 120 118 118 118 118 118 118 118 118 118 118 118 117 117 117 117 117 117 117 117 117 117 120 120 120 120 0 0 0 0 0 118 118 120 120 120 120 120 120 121 121 121 121 121 120 120 120 126 123 120 120 118 118 118 118 118 118 118 118 118 120 120 120 120 120 120 120 120 120 120 120 120 120 120 120 120 120 120 120 120 120 120 120 120 118 118 117 117 117 114 114 115 115 117 117 117 118 118 120 120 120 120 120 120 120 120 121 121 121 121 121 121 123 123 121 120 120 120 120 118 118 118 118 118 120 120 120 120 121 121 121 121 120 120 121 123 120 120 120 120 120 120 120 118 118 120 120 120 120 120 120 120 120 120 118 117 117 117 0 0 0 0 0 0 0 0 120 120 120 120 120 120 120 118 118 118 118 118 118 118 118 120 120 120 118 118 118 118 118 117 117 115 115 117 0 117 0 118 118 120 120 120 120 120 0 112 112 112 112 114 115 115 117 118 118 118 118 118 118 118 117 117 118 118 115 115 114 114 114 114 115 115 117 117 118 118 118 118 118 118 117 117 117 118 118 120 120 117 117 118 120 120 120 120 120 120 120 117 117 117 117 117 117 117 117 117 115 115 115 115 115 117 117 118 118 120 120 120 120 120 120 118 118 117 117 117 117 117 115 115 115 114 114 112 112 112 112 0 0 0 0 0 0 0 0 0 0 0 0 0 0 0 0 0 0 0 0 0 0 0 0 0 0 0 0 0 0 0 0 0 0 0 0 0 0 0 0 0 0 0 0 0 0 0 0 0 0 0 0 0 0 0 0 0 0 0 0 0 0 0 0 0 0 0 0 0 0 0 0 0 0 0 0 0 0 0 0 0 0 0 0 0 0 0 0 0 0 0 0 0 0 0 0 0 0 0 0 0 0 0 0 0 0 0 0 0 0 0 0 0 0 0 0 0 0 0 0 0 0 0 0 0 0 0 0 0 0 0 0 0 0 0 0 0 0 0 0 0 0 0 0 0 0 0 0 0 0 0 0 0 0
0 0 0 0 0 0 0 65 65 0 0 0 0 0 0 0 0 0 0 0 0 0 66 66 66 65 65 65 0 0 0 0 0 0 0 0 0 65 65 65 65 65 65 65 65 65 65 65 0 0 0 0 0 0 0 0 0 0 0 0 0 0 103 103 103 103 103 105 106 106 106 107 65 64 64 64 64 65 64 64 114 114 114 112 111 110 107 63 63 63 63 63 63 63 63 118 65 65 65 65 64 64 65 64 64 64 64 64 64 115 115 115 117 117 117 59 59 60 60 60 63 63 64 65 65 65 117 117 117 117 115 115 115 115 115 115 114 114 114 114 114 114 115 115 115 118 120 120 120 117 117 117 117 115 115 115 115 115 130 130 130 125 125 125 125 125 126 126 125 125 125 125 125 117 117 117 117 118 118 118 63 63 118 118 62 62 62 118 118 120 118 117 117 118 120 118 118 118 118 118 118 118 0 0 118 118 0 0 118 120 0 120 120 118 118 0 65 0 0 0 120 120 120 120 120 120 120 120 120 120 120 120 121 120 120 120 120 123 120 120 120 118 118 118 118 118 118 118 118 120 120 120 120 120 118 118 120 120 120 120 120 120 120 120 120 0 0 0 120 120 120 120 120 118 118 117 117 117 118 118 115 115 118 118 118 118 118 120 120 120 120 120 120 120 120 120 120 121 121 121 123 123 123 121 120 120 120 118 118 117 117 117 117 117 118 118 118 120 121 121 120 118 118 123 125 125 125 125 64 64 118 118 118 118 120 120 120 120 118 118 120 120 120 120 115 115 117 117 0 0 0 0 0 0 0 120 120 120 120 120 120 120 118 118 118 118 118 118 118 118 120 120 120 118 118 118 118 118 118 117 117 117 0 0 0 0 120 120 118 118 120 120 120 118 112 112 112 112 114 115 117 117 118 118 118 118 118 118 118 118 118 118 118 115 115 114 114 114 114 115 115 117 118 118 118 118 118 118 118 118 118 118 118 118 120 120 117 117 118 120 120 120 120 120 120 120 120 120 117 117 117 117 117 117 117 115 115 115 115 115 117 117 117 118 120 120 120 120 120 118 118 117 117 117 117 117 115 115 114 114 114 114 112 112 112 112 112 0 0 0 0 0 0 0 0 0 0 0 0 0 0 0 0 0 0 0 0 0 0 0 0 0 0 0 0 0 0 0 0 0 0 0 0 0 0 0 0 0 0 0 0 0 0 0 0 0 0 0 0 0 0 0 0 0 0 0 0 0 0 0 0 0 0 0 0 0 0 0 0 0 0 0 0 0 0 0 0 0 0 0 0 0 0 0 0 0 0 0 0 0 0 0 0 0 0 0 0 0 0 0 0 0 0 0 0 0 0 0 0 0 0 0 0 0 0 0 0 0 0 0 0 0 0 0 0 0 0 0 0 0 0 0 0 0 0 0 0 0 0 0 0 0 0 0 0 0 0 0 0 0
0 0 0 0 0 0 0 64 64 64 0 0 0 0 0 0 0 0 0 0 0 66 66 66 66 65 65 65 0 0 0 0 0 0 0 0 64 64 64 65 65 65 65 65 65 65 65 65 65 65 65 65 65 66 0 0 0 0 0 0 0 0 64 105 105 103 103 103 105 106 106 107 65 64 64 64 64 65 64 64 65 118 117 114 64 64 64 63 63 63 63 63 63 62 62 62 63 64 64 64 64 64 65 64 64 64 64 64 64 114 115 115 117 117 117 60 60 60 61 61 63 63 64 64 65 65 65 65 117 117 117 117 117 115 115 115 115 115 115 115 115 115 117 117 117 118 118 64 64 63 63 64 64 64 0 64 0 0 0 0 130 130 126 125 125 126 126 126 126 126 126 0 0 0 64 64 64 64 63 63 63 63 63 62 62 62 62 63 63 63 117 117 117 118 120 120 120 65 65 0 0 0 0 0 0 0 0 0 0 0 0 65 118 118 65 65 65 0 64 0 0 120 120 120 120 120 120 120 120 120 120 120 120 64 64 64 123 123 121 64 64 64 64 118 118 120 120 120 120 120 64 118 118 118 118 118 120 120 120 120 120 120 120 0 0 0 0 120 120 120 121 121 120 120 120 120 118 118 118 118 117 117 118 118 118 118 118 120 120 120 120 120 120 120 120 120 120 121 121 121 123 125 123 121 121 120 120 118 117 114 114 117 117 117 65 65 118 120 121 121 120 118 118 121 125 125 125 64 64 0 0 120 120 120 120 120 118 117 117 118 118 120 120 120 115 115 118 118 64 0 0 0 0 0 120 120 120 120 120 120 120 120 118 118 118 118 118 118 118 118 118 118 118 118 118 118 120 118 118 118 118 0 0 0 0 0 0 0 118 118 118 118 118 118 0 121 121 121 118 118 118 118 118 118 118 118 118 120 120 118 118 118 118 118 114 114 114 114 114 115 115 117 118 118 118 118 118 118 118 118 118 118 118 118 120 120 118 118 118 120 120 120 120 120 120 120 120 120 117 117 117 117 115 115 117 115 115 115 115 117 117 117 117 118 120 120 120 120 120 118 118 117 117 117 117 115 115 115 114 114 114 114 114 114 112 112 112 0 0 0 0 0 0 0 0 0 0 0 0 0 0 0 0 0 0 0 0 0 0 0 0 0 0 0 0 0 0 0 0 0 0 0 0 0 0 0 0 0 0 0 0 0 0 0 0 0 0 0 0 0 0 0 0 0 0 0 0 0 0 0 0 0 0 0 0 0 0 0 0 0 0 0 0 0 0 0 0 0 0 0 0 0 0 0 0 0 0 0 0 0 0 0 0 0 0 0 0 0 0 0 0 0 0 0 0 0 0 0 0 0 0 0 0 0 0 0 0 0 0 0 0 0 0 0 0 0 0 0 0 0 0 0 0 0 0 0 0 0 0 0 0 0 0 0 0 0 0 0 0 0
0 0 0 0 0 0 0 64 64 64 0 0 0 0 0 0 0 0 0 0 0 66 66 66 65 65 65 65 65 65 65 65 65 65 65 65 64 64 64 65 65 65 65 65 65 65 65 65 65 65 65 65 65 66 66 66 0 0 66 66 65 65 64 64 64 103 103 103 105 105 105 64 64 64 64 65 65 65 64 64 65 65 65 64 64 64 64 63 63 63 63 63 63 62 62 62 63 64 64 64 64 64 64 64 64 64 64 64 64 64 63 63 63 62 62 62 61 61 63 63 64 64 64 64 65 65 65 64 64 64 65 64 64 64 64 64 64 64 63 63 115 117 117 118 118 118 118 64 64 63 63 64 64 64 0 64 64 64 64 136 130 130 128 128 128 128 128 128 128 128 128 65 64 64 64 64 64 64 63 63 63 63 63 62 62 62 62 63 63 63 63 63 63 64 120 120 65 65 65 0 0 0 0 0 0 0 0 0 64 64 65 65 65 65 65 65 65 65 64 64 64 64 120 120 120 63 63 63 63 121 121 121 64 64 64 64 64 64 64 64 64 64 64 65 65 65 65 64 0 0 0 0 0 120 120 120 120 120 120 120 120 120 0 0 0 0 0 121 121 121 121 121 120 120 120 64 64 64 64 118 118 118 118 118 118 118 118 120 65 65 120 120 120 120 120 120 64 64 64 64 65 64 63 63 63 63 65 65 65 112 112 114 114 65 65 65 65 120 120 120 65 65 65 121 64 64 64 64 64 64 64 0 64 64 63 117 117 117 117 117 118 118 120 120 64 64 64 64 0 0 0 0 0 0 0 120 120 120 120 120 120 120 120 118 118 118 118 118 118 118 118 63 63 118 118 118 120 120 120 118 118 118 0 0 0 0 0 118 118 118 118 118 118 118 0 0 121 121 120 120 120 120 120 118 117 117 118 120 120 118 118 118 62 62 62 62 63 63 63 117 117 118 118 118 118 118 118 118 118 118 118 118 120 120 120 120 120 120 120 118 118 118 118 118 120 120 120 120 117 117 117 117 115 115 117 117 117 117 117 117 62 62 61 61 120 120 120 118 115 115 117 115 115 115 115 115 115 114 114 114 114 114 114 114 112 112 112 0 0 0 0 0 0 0 0 0 0 0 0 0 0 0 0 0 0 0 0 0 0 0 0 0 0 0 0 0 0 0 0 0 0 0 0 0 0 0 0 0 0 0 0 0 0 0 0 0 0 0 0 0 0 0 0 0 0 0 0 0 0 0 0 0 0 0 0 0 0 0 0 0 0 0 0 0 0 0 0 0 0 0 0 0 0 0 0 0 0 0 0 0 0 0 0 0 0 0 0 0 0 0 0 0 0 0 0 0 0 0 0 0 0 0 0 0 0 0 0 0 0 0 0 0 0 0 0 0 0 0 0 0 0 0 0 0 0 0 0 0 0 0 0 0 0 0 0 0 0 0 0 0
0 0 0 0 0 0 0 64 64 64 65 65 64 64 0 0 0 0 0 66 66 66 66 66 65 65 65 65 65 65 65 65 65 65 65 65 65 65 65 65 65 65 65 65 65 65 65 65 65 65 65 65 65 65 65 66 66 66 66 66 65 65 64 64 65 65 65 64 65 65 64 64 64 64 64 64 65 65 65 65 65 65 64 64 64 64 64 64 63 63 63 63 63 63 63 63 63 64 64 64 64 64 64 64 64 64 64 64 64 64 63 63 62 62 62 62 62 62 63 64 64 64 64 64 64 64 64 64 64 64 64 64 63 63 64 64 64 63 63 63 63 63 63 63 63 63 64 64 64 63 63 64 64 64 63 64 64 64 64 136 136 132 130 130 130 130 65 65 65 65 65 65 64 64 64 64 64 63 63 63 63 63 63 63 63 63 63 63 63 63 63 63 63 64 65 65 65 65 65 0 0 0 0 0 0 64 64 64 64 64 65 65 65 65 65 65 65 65 64 64 64 64 64 63 63 63 63 63 63 63 64 64 64 64 64 64 64 64 64 64 64 64 64 65 65 65 65 64 64 64 64 64 63 120 120 120 120 121 121 121 64 64 64 0 64 64 0 0 65 65 65 65 64 64 64 64 64 64 64 64 64 118 120 120 120 120 120 65 65 65 65 121 121 64 64 64 64 64 64 65 65 64 63 63 63 63 65 65 65 112 112 65 65 64 64 64 65 65 65 65 65 65 65 64 64 64 64 64 64 64 64 64 64 64 63 63 63 63 63 63 63 118 120 120 64 64 64 64 0 0 0 0 0 0 0 120 118 118 118 118 120 120 118 118 118 118 63 63 63 63 63 63 63 118 118 118 120 120 120 118 118 0 0 0 0 0 0 0 118 118 118 120 120 120 0 0 120 0 120 120 120 120 120 118 117 117 118 118 63 63 63 62 62 62 62 62 63 63 63 63 118 118 118 118 120 120 0 120 0 0 0 120 120 120 120 120 0 118 118 118 118 118 118 118 118 118 118 63 63 64 64 117 115 115 117 117 118 117 117 117 62 62 61 61 120 62 62 62 115 115 115 114 114 115 115 115 115 114 114 114 114 114 114 114 112 112 112 0 0 0 0 0 0 0 0 0 0 0 0 0 0 0 0 0 0 0 0 0 0 0 0 0 0 0 0 0 0 0 0 0 0 0 0 0 0 0 0 0 0 0 0 0 0 0 0 0 0 0 0 0 0 0 0 0 0 0 0 0 0 0 0 0 0 0 0 0 0 0 0 0 0 0 0 0 0 0 0 0 0 0 0 0 0 0 0 0 0 0 0 0 0 0 0 0 0 0 0 0 0 0 0 0 0 0 0 0 0 0 0 0 0 0 0 0 0 0 0 0 0 0 0 0 0 0 0 0 0 0 0 0 0 0 0 0 0 0 0 0 0 0 0 0 0 0 0 0 0 0 0 0
0 0 0 0 0 0 0 65 64 64 64 64 64 64 64 65 65 0 0 66 66 66 66 66 65 65 65 65 65 65 65 65 65 65 65 65 65 65 65 65 65 65 65 65 65 65 65 65 65 65 65 65 65 65 65 65 65 65 65 65 65 65 64 64 65 65 64 64 65 65 64 64 64 64 64 64 64 64 64 64 64 64 64 64 64 64 64 64 63 63 63 63 63 63 63 63 63 63 63 64 64 64 64 64 64 64 64 64 64 64 63 63 62 62 62 62 62 63 63 64 64 64 64 64 64 64 64 64 64 64 64 64 63 63 64 64 64 63 63 63 63 63 63 63 63 63 64 64 64 64 64 64 64 64 63 63 64 64 64 64 64 64 64 64 64 65 65 65 65 65 64 64 64 64 64 64 64 63 63 63 63 63 63 63 63 63 63 63 63 63 64 64 64 64 64 65 65 65 65 65 0 0 0 0 0 0 64 64 64 64 65 65 65 65 65 65 65 65 65 64 64 64 64 63 63 63 63 63 63 63 64 64 64 64 64 64 64 64 64 64 64 64 64 65 65 65 65 64 64 64 64 64 63 63 63 64 64 64 64 64 64 64 64 64 64 64 0 0 0 65 0 65 64 64 64 64 64 64 64 64 64 65 118 120 120 118 64 64 64 65 64 64 64 64 64 64 64 64 64 65 65 64 64 63 63 64 64 64 65 65 65 65 65 64 64 64 64 64 64 64 65 65 65 64 64 64 64 64 64 63 63 64 64 64 63 63 63 63 63 63 63 63 64 64 64 64 64 64 64 63 63 63 0 0 0 118 118 118 118 118 120 120 118 118 64 63 63 63 63 63 63 63 64 64 64 65 65 65 65 65 64 0 0 0 0 0 0 0 120 120 120 120 120 120 62 62 62 0 63 63 63 63 63 63 63 63 63 63 63 63 63 62 62 62 62 62 63 63 63 63 63 118 118 118 118 118 0 0 0 0 0 0 120 120 120 120 0 118 118 118 118 118 118 118 118 118 118 63 63 63 63 63 63 118 118 118 118 120 120 62 62 62 61 61 62 62 62 62 62 62 115 114 114 114 114 114 114 114 114 114 114 114 114 114 114 63 62 62 62 62 62 62 62 62 62 62 0 0 0 0 0 0 0 0 0 0 0 0 0 0 0 0 0 0 0 0 0 0 0 62 62 0 0 0 0 0 0 0 0 0 0 0 0 0 0 0 0 0 0 0 0 0 0 0 0 0 0 0 0 0 0 0 0 0 0 0 0 0 0 0 0 0 0 0 0 0 0 0 0 0 0 0 0 0 0 0 0 0 0 0 0 0 0 0 0 0 0 0 0 0 0 0 0 0 0 0 0 0 0 0 0 0 0 0 0 0 0 0 0 0 0 0 0 0 0 0 0 0 0 0 0 0 0 0 0 0 0 0 0 0 0 0 0 0 0 0 0 0 0 0
0 0 0 0 0 0 0 65 64 64 64 64 64 64 64 64 65 65 65 65 66 66 66 66 65 65 65 65 65 65 65 65 65 65 65 65 65 65 65 65 65 65 65 65 65 65 65 65 65 65 65 65 65 65 65 65 65 65 65 65 65 65 64 64 65 65 64 64 65 65 64 64 64 64 64 64 64 64 64 64 64 64 64 64 64 64 64 64 63 63 63 63 63 63 63 63 63 63 63 64 64 64 64 64 64 64 64 64 64 64 64 63 63 63 63 63 63 63 63 64 64 64 64 64 64 64 64 64 64 64 64 64 64 64 64 64 64 63 63 63 63 63 63 63 63 63 64 64 64 64 63 63 64 64 63 63 64 64 64 64 64 64 64 64 64 64 64 64 64 64 64 64 64 64 64 63 63 63 63 63 63 63 63 63 63 63 64 64 64 64 64 64 64 64 64 65 65 65 65 65 65 65 0 0 0 0 64 64 64 64 65 65 64 64 65 65 65 65 65 65 65 64 64 64 64 63 63 63 63 63 64 64 64 65 65 64 64 64 64 64 64 64 64 65 65 65 65 64 64 64 63 63 63 63 63 64 64 64 64 64 64 64 64 64 64 65 0 0 65 65 65 65 64 64 64 64 65 65 65 65 65 65 65 65 65 65 64 64 64 64 64 63 63 64 64 64 64 64 65 65 65 64 64 64 64 64 64 64 65 65 65 65 64 64 64 64 64 64 64 64 64 65 65 64 64 64 64 64 63 63 63 64 64 64 64 64 64 63 63 63 63 63 64 64 64 64 64 64 64 63 63 63 63 63 63 63 63 63 63 64 64 64 118 118 64 63 63 63 63 63 63 63 63 64 64 64 65 64 64 64 0 0 0 0 0 0 121 121 120 120 120 120 120 120 62 62 62 63 63 63 63 63 63 63 63 63 63 63 63 63 63 62 62 62 62 63 63 63 63 63 63 63 118 118 118 0 0 0 0 0 0 120 120 120 120 120 0 118 118 118 118 118 118 118 118 63 63 63 63 63 63 63 63 63 118 118 118 120 120 62 62 62 62 62 62 62 62 62 62 62 62 114 114 114 114 114 114 114 114 112 63 63 63 63 63 63 62 62 62 62 62 62 62 62 62 62 62 0 0 0 0 0 0 0 0 0 0 0 0 0 0 0 0 0 61 61 62 62 62 62 62 62 62 0 0 0 0 0 0 0 0 0 0 0 0 0 0 0 0 0 0 0 0 0 0 0 0 0 0 0 0 0 0 0 0 0 0 0 0 0 0 0 0 0 0 0 0 0 0 0 0 0 0 0 0 0 0 0 0 0 0 0 0 0 0 0 0 0 0 0 0 0 0 0 0 0 0 0 0 0 0 0 0 0 0 0 0 0 0 0 0 0 0 0 0 0 0 0 0 0 0 0 0 0 0 59 59 60 60 0 0 0 0 0 0 0 0 0 0 0
0 0 0 0 0 0 0 65 64 64 64 64 64 64 64 64 65 65 65 65 65 65 66 66 65 65 65 65 65 65 65 65 65 65 65 65 65 65 65 65 65 65 65 65 65 65 65 65 65 65 65 65 65 65 65 65 65 65 65 65 65 65 64 64 65 65 65 65 65 65 65 65 65 65 65 65 65 65 64 64 64 64 64 64 64 64 64 64 63 63 63 63 63 63 63 63 63 64 64 64 64 64 64 64 64 64 64 64 64 64 64 63 63 64 63 63 63 63 63 64 64 64 64 64 64 64 64 64 64 64 64 64 63 63 63 63 63 63 63 63 63 63 63 64 64 64 64 64 64 64 63 63 64 64 65 65 64 64 64 64 64 64 64 64 64 64 64 64 64 64 64 64 64 64 64 63 63 63 63 63 63 63 63 63 63 63 64 64 64 64 64 64 64 64 64 64 64 64 64 65 65 65 65 0 0 65 64 64 64 64 65 65 64 64 65 65 65 65 65 65 65 65 64 64 64 63 63 63 63 63 64 64 64 64 64 64 64 64 64 64 64 64 64 65 65 65 65 64 64 64 63 63 63 63 63 64 64 64 64 64 64 64 64 64 64 64 65 65 64 64 65 65 64 64 64 64 65 65 65 65 65 65 65 65 65 65 64 64 64 64 64 63 63 64 64 64 64 64 64 64 64 64 64 64 64 64 64 64 65 65 65 65 64 64 64 64 64 64 64 64 64 65 65 64 64 64 64 64 63 63 63 64 64 64 64 64 64 64 64 64 64 64 64 64 64 64 64 64 63 63 63 63 63 63 63 63 63 63 63 64 64 64 64 64 63 63 63 63 63 63 63 63 63 63 64 64 64 64 64 64 64 64 63 63 64 64 121 63 63 63 63 63 63 63 62 62 62 63 63 63 63 63 63 63 63 63 63 63 63 63 63 63 63 63 63 63 63 63 63 63 62 62 63 63 62 62 62 0 0 63 0 0 120 120 120 120 0 0 120 120 120 120 118 118 63 63 63 63 63 63 63 63 63 63 63 63 62 62 62 62 62 62 62 62 62 62 62 62 62 62 62 114 114 114 114 62 62 62 62 62 62 63 63 63 63 63 62 62 62 62 62 62 62 62 62 62 62 62 0 0 0 0 0 62 62 62 0 61 61 0 0 0 0 0 61 61 62 62 62 62 62 62 62 62 0 0 0 0 0 0 0 0 0 0 0 0 0 0 0 0 0 0 0 0 0 0 0 0 0 0 0 0 0 0 0 0 61 61 59 59 59 59 0 0 0 0 0 0 0 0 0 0 0 0 0 0 0 0 0 0 0 0 0 0 0 0 0 0 0 0 0 0 0 0 0 0 0 0 0 0 0 0 0 0 0 0 0 0 0 0 0 0 0 0 0 0 0 0 0 0 60 60 60 60 60 59 59 60 60 60 60 0 0 0 0 0 0 0 61 61
0 0 0 0 0 0 0 65 64 64 64 64 64 64 64 64 65 65 65 65 65 65 65 65 65 65 65 65 65 65 65 65 65 65 65 65 65 65 65 65 65 65 65 65 65 65 65 65 65 65 65 64 64 65 65 65 65 65 65 65 65 65 64 64 65 64 64 65 65 65 65 65 65 65 65 65 65 65 64 63 63 64 64 64 64 64 64 64 63 63 63 63 63 63 63 63 63 64 64 64 64 64 64 64 64 64 64 64 64 64 64 64 64 64 63 63 64 64 64 64 64 64 64 64 64 64 64 64 64 64 64 64 63 63 63 63 63 63 63 63 63 63 64 64 64 64 64 64 64 64 64 64 64 64 64 64 65 64 64 64 64 64 64 64 64 65 65 64 64 64 64 64 64 64 64 63 63 64 63 63 63 63 63 63 63 64 64 64 64 64 64 64 64 64 64 64 64 64 64 64 65 65 64 64 65 65 64 64 64 64 64 65 64 64 64 64 65 65 65 65 65 65 64 64 64 63 63 63 63 63 64 64 64 64 64 64 64 64 64 64 64 64 64 65 65 65 65 65 64 64 64 64 64 64 64 64 64 64 64 64 64 64 64 64 64 64 64 64 64 64 64 65 64 64 64 65 65 65 65 65 65 65 65 65 65 64 64 64 64 64 64 63 63 63 64 64 64 64 64 64 64 64 64 64 64 64 65 65 65 65 65 65 64 64 64 64 64 64 64 64 64 64 64 64 64 64 64 63 63 63 63 64 64 64 64 64 64 65 65 64 64 64 64 64 64 64 64 64 63 63 63 63 63 63 63 63 63 63 63 64 64 64 64 64 63 63 63 63 63 63 63 63 63 63 63 64 64 64 64 64 64 64 63 63 64 64 63 63 63 63 63 63 63 63 63 63 63 63 63 63 63 63 63 63 63 63 63 63 63 63 63 63 63 63 63 63 63 63 62 62 62 62 62 62 62 62 62 63 63 0 0 0 0 0 0 0 62 0 63 63 63 63 63 63 63 63 63 63 63 63 63 63 63 63 63 63 62 62 62 62 62 62 62 62 62 62 62 62 62 63 63 63 63 63 62 62 62 62 62 62 62 62 62 62 62 62 62 62 62 62 62 62 62 62 62 62 62 62 62 62 62 62 62 62 62 62 62 61 61 0 0 0 62 62 62 62 62 62 62 62 62 62 62 62 62 62 62 0 0 0 0 0 0 0 0 0 0 61 61 0 0 62 62 0 0 0 62 62 62 63 62 62 63 62 62 62 61 61 59 59 59 59 60 60 60 0 0 0 0 0 0 0 0 0 61 61 0 0 0 0 0 0 0 0 0 0 0 0 0 0 0 0 0 0 0 0 0 0 0 0 0 0 0 0 0 0 0 0 0 0 0 0 0 0 0 0 60 60 60 60 60 60 60 60 60 60 60 60 60 60 60 61 61 62 62 0 0 61 61 61
0 0 0 0 0 0 0 65 64 64 64 64 64 64 64 64 65 65 65 65 65 65 65 65 65 65 65 65 65 65 65 65 65 65 65 65 65 65 65 65 65 65 65 65 65 65 65 65 65 65 65 64 64 65 65 65 65 65 65 65 65 65 64 64 65 64 64 64 64 64 64 64 65 65 65 65 65 64 64 63 63 64 63 63 64 64 64 64 64 63 63 64 63 63 63 63 63 64 64 64 64 64 64 64 64 64 64 64 64 64 64 64 64 64 64 64 64 64 64 64 64 64 64 63 63 63 64 64 64 64 64 64 63 63 63 63 63 63 63 63 63 63 64 64 64 64 64 64 64 64 64 64 64 64 64 64 65 64 64 64 64 64 64 64 64 64 64 64 64 64 65 65 65 65 64 64 64 64 63 63 63 63 63 63 64 64 64 64 64 64 64 64 64 64 64 64 64 64 64 64 64 64 64 64 64 65 64 64 64 64 64 64 64 64 64 64 64 65 65 65 65 65 64 64 64 63 63 63 63 64 64 64 64 64 64 64 64 64 64 64 64 65 65 65 65 65 65 65 64 64 64 64 64 64 64 64 64 64 64 64 64 64 63 63 63 64 64 64 64 64 64 65 64 64 64 65 65 65 65 65 65 65 65 65 64 64 64 64 64 64 64 63 63 63 64 64 64 64 64 64 64 65 65 65 65 65 65 65 65 64 64 64 64 64 64 64 64 64 64 64 64 64 64 64 64 64 64 63 63 63 64 64 64 64 64 64 64 65 65 64 64 64 64 64 64 64 63 63 63 63 63 63 63 63 63 63 63 63 63 64 64 64 64 64 63 63 63 63 63 63 63 63 63 63 63 63 63 64 64 64 63 63 63 63 64 64 63 63 63 63 63 63 63 63 63 63 63 63 63 63 63 63 63 63 63 63 63 63 63 63 63 63 63 63 63 63 63 63 62 62 62 62 62 62 62 62 63 63 63 63 63 0 0 0 63 63 62 62 63 63 63 63 63 63 63 63 63 63 63 63 63 63 63 63 63 63 62 62 62 62 62 62 62 62 62 62 62 62 63 63 63 63 62 62 62 62 62 62 62 62 62 62 62 62 62 62 62 62 62 62 62 62 62 62 62 62 62 62 62 62 62 62 62 62 62 62 62 62 62 62 62 62 62 62 62 62 62 62 62 62 62 62 62 62 62 62 62 62 62 0 0 62 62 62 62 62 62 61 61 62 62 62 62 62 62 62 62 62 62 62 62 62 63 62 62 62 61 61 60 60 60 60 60 60 60 0 0 0 0 0 0 0 0 0 61 61 0 0 0 0 0 0 0 0 0 0 0 62 62 0 0 0 62 62 61 61 61 61 0 0 0 0 59 59 0 0 60 60 61 61 0 0 0 61 61 60 60 60 60 60 60 60 60 60 60 60 60 60 60 60 61 61 61 62 62 0 0 61 61 61
0 0 0 0 0 0 0 65 65 64 64 64 64 64 64 64 64 65 65 65 65 65 65 66 65 65 65 65 65 65 65 65 65 65 65 65 65 65 65 65 65 65 65 65 65 65 65 64 64 64 64 64 64 64 65 65 65 65 65 65 65 65 64 64 64 64 64 64 64 64 64 64 65 65 65 64 64 64 64 63 63 64 63 63 63 63 63 63 64 64 64 64 64 64 64 64 64 64 64 64 64 64 63 63 63 63 63 64 64 64 64 64 64 64 65 64 64 64 64 64 64 64 64 63 63 63 64 64 64 64 64 63 63 63 63 63 63 63 63 63 63 63 64 64 64 64 63 63 64 64 64 64 64 64 64 64 65 64 64 64 64 64 64 64 64 64 64 64 64 64 65 65 65 65 64 64 64 64 63 63 63 63 63 63 64 64 64 64 64 64 64 64 64 64 64 64 64 64 64 64 64 64 64 64 64 65 64 64 64 64 64 64 63 63 64 64 64 65 65 65 65 65 64 64 64 64 64 63 63 64 64 64 64 64 64 64 64 64 64 64 65 65 65 65 65 65 65 65 64 64 64 64 64 64 64 64 64 64 64 64 64 64 63 63 63 64 64 64 64 64 64 65 65 65 65 65 65 65 65 65 65 65 65 65 64 64 64 64 64 64 64 63 63 64 64 64 64 64 64 64 64 64 64 64 64 64 65 64 64 64 64 64 64 64 64 64 64 64 64 64 64 64 64 64 64 64 64 64 64 64 64 64 64 64 64 64 65 65 65 65 64 64 64 64 64 64 63 63 63 63 64 63 63 63 63 63 63 63 64 64 64 64 64 64 63 63 63 63 63 63 63 63 63 63 63 63 63 64 64 64 63 63 63 63 64 64 63 63 63 63 63 63 63 63 63 63 63 63 63 63 63 63 63 63 63 63 63 63 63 63 63 63 63 63 63 63 63 63 63 63 63 63 63 63 63 63 63 63 63 63 63 62 62 62 62 62 62 62 62 62 62 62 63 62 62 63 63 63 63 63 63 63 63 63 63 63 62 62 62 62 62 62 62 62 62 62 62 63 63 63 63 62 62 62 62 62 62 62 62 62 62 62 62 62 62 62 62 62 62 62 62 62 62 62 62 62 62 62 62 62 62 62 62 62 62 62 62 62 62 62 62 62 62 62 62 62 62 62 62 63 63 62 62 62 62 62 62 62 62 0 0 62 62 62 62 62 62 62 62 62 62 62 62 62 62 62 62 62 62 62 62 62 62 62 62 62 62 62 61 61 61 61 61 61 61 62 62 62 62 62 0 0 62 62 62 62 62 62 62 62 62 63 0 0 62 62 62 62 62 62 62 62 62 61 61 61 61 61 61 61 0 60 59 59 59 60 60 60 61 59 59 0 0 61 61 60 60 60 60 60 60 60 60 60 60 60 60 60 60 61 61 61 61 62 62 62 62 62 61 61
0 0 0 0 0 0 0 65 65 65 65 64 64 64 64 64 64 64 65 65 65 65 65 66 66 66 66 65 65 65 65 65 65 65 65 65 65 65 65 65 65 66 65 65 65 65 65 64 64 64 64 64 64 64 64 64 65 65 65 65 65 65 64 64 64 64 64 64 64 64 64 64 64 65 64 64 64 64 64 63 63 64 64 63 63 63 63 63 64 64 64 64 64 64 64 64 64 64 64 64 64 64 63 63 63 63 63 64 64 64 64 64 64 64 64 64 64 64 64 64 64 64 63 63 63 63 64 64 64 64 64 63 63 63 63 63 63 63 63 63 63 63 63 63 63 63 63 63 63 63 64 64 64 64 65 65 65 65 65 65 65 64 64 64 65 65 65 64 64 65 65 65 65 65 65 65 65 65 64 64 64 64 64 65 64 64 64 65 65 65 65 64 64 64 64 64 64 64 64 64 64 64 64 64 64 64 64 64 64 64 64 64 63 63 63 64 64 64 65 65 65 65 64 64 64 64 64 64 64 64 64 64 64 64 64 64 64 64 64 64 65 65 65 65 65 65 65 65 64 64 64 64 64 64 64 64 64 64 64 64 64 64 63 63 63 64 64 64 64 64 64 65 64 64 65 65 65 65 65 65 65 65 65 64 64 64 64 64 64 64 64 63 63 63 64 64 64 64 64 64 64 64 64 64 64 64 64 64 64 64 64 64 64 64 64 64 64 64 64 64 64 64 64 64 64 64 64 64 64 64 64 64 64 64 64 65 65 65 65 65 65 65 64 64 64 64 63 63 63 63 64 63 63 63 63 64 64 64 64 64 64 64 64 64 63 63 63 63 63 63 63 63 63 63 63 63 64 64 64 63 63 63 63 63 63 63 63 63 63 63 63 63 63 63 63 63 63 63 63 63 63 63 63 63 63 63 63 63 63 63 63 63 63 63 63 63 63 63 63 63 63 63 63 63 63 63 63 63 63 63 63 62 62 62 62 62 62 62 62 62 62 62 63 62 62 63 63 63 63 63 63 63 63 63 63 63 62 62 62 62 62 62 62 62 62 62 62 62 62 63 63 62 62 62 62 62 62 62 62 62 62 62 62 62 62 62 62 62 62 62 62 62 62 62 62 62 62 62 62 62 62 62 62 62 62 62 62 62 62 62 62 62 62 62 62 62 62 62 62 63 63 62 62 62 62 62 62 62 62 62 62 62 62 62 62 62 62 62 62 62 62 62 62 62 62 62 62 62 62 62 62 62 62 62 62 62 62 62 62 62 61 61 61 61 61 62 62 62 62 62 62 62 62 62 62 62 62 62 62 62 62 62 62 62 62 62 62 62 62 62 62 62 61 61 61 61 61 60 60 60 59 59 59 59 59 60 60 60 61 59 59 60 61 61 61 60 60 60 60 60 60 60 60 60 60 60 60 60 60 61 61 61 61 62 62 62 62 62 62 62
0 0 0 0 0 0 0 65 65 65 65 65 64 64 64 64 64 64 65 65 65 65 65 65 66 66 66 66 65 65 65 65 65 65 65 65 65 65 65 65 65 65 65 65 65 65 64 64 64 64 64 64 64 64 64 64 65 65 65 65 65 65 64 64 64 64 64 64 64 64 64 64 64 64 64 64 64 64 64 64 64 64 64 64 63 63 64 64 64 64 64 64 64 64 64 64 63 63 64 64 64 64 64 64 64 64 64 64 64 64 64 64 64 64 64 64 64 64 64 64 64 64 63 63 63 63 64 64 64 64 64 63 63 63 63 63 64 63 63 63 63 64 63 63 63 63 63 63 63 63 64 64 64 65 65 65 65 65 65 65 65 64 64 65 65 65 65 65 65 65 65 65 65 65 65 65 65 65 64 64 64 64 65 65 64 64 64 65 65 65 65 64 64 64 64 64 64 64 64 64 64 65 64 64 64 64 64 64 64 64 64 64 63 63 63 64 64 64 64 64 64 65 64 64 63 63 63 64 64 64 64 64 64 64 64 64 64 64 64 64 65 65 65 65 65 65 65 65 64 64 64 64 65 65 65 65 65 65 64 64 64 64 63 63 64 64 64 64 64 64 64 64 64 64 64 64 64 64 65 65 65 65 64 64 64 64 64 64 64 64 64 63 63 63 64 63 63 64 64 64 64 64 64 64 64 64 64 64 64 64 64 64 64 64 64 64 64 64 64 64 64 64 64 64 64 63 63 64 64 64 64 64 64 65 65 65 65 65 65 65 65 65 64 64 64 64 64 63 63 63 64 64 63 63 64 64 64 64 64 64 64 64 64 63 63 63 63 63 63 63 63 63 63 64 64 64 64 64 64 63 63 63 63 63 63 63 63 63 63 63 64 64 63 63 63 63 63 63 63 63 63 63 63 63 63 63 63 63 63 63 63 63 63 63 63 63 63 63 63 63 63 63 63 63 63 63 63 63 63 63 63 63 62 62 62 62 62 62 62 62 62 62 63 63 63 63 63 63 63 63 63 63 63 63 63 63 62 62 62 62 62 62 62 62 62 62 62 62 62 62 62 62 62 62 62 62 62 62 62 62 62 62 62 62 62 62 62 62 62 62 62 62 62 62 62 62 62 62 62 62 62 62 62 62 62 62 62 62 62 62 62 62 62 62 62 62 62 62 62 63 63 62 62 62 62 62 62 62 62 62 62 62 62 62 62 62 62 62 62 62 62 62 62 62 62 62 62 62 62 62 62 62 62 62 62 62 62 62 62 62 62 62 62 62 62 62 62 62 62 62 62 62 62 62 62 62 62 62 62 62 62 62 62 62 62 62 62 62 62 62 62 62 61 61 61 61 61 60 60 60 59 59 59 59 60 60 60 60 61 60 60 60 61 61 61 60 60 60 60 60 60 60 60 60 60 60 60 60 61 61 61 61 61 62 62 62 62 62 62 62
