0 0 0 0 0 0 0 0 0 0 0 0 0 0 0 0 0 0 0 0 0 0 0 0 0 0 0 0 0 0 98 98 0 0 0 100 99 96 96 96 97 97 97 97 97 97 97 98 98 98 98 98 99 99 100 100 100 101 101 101 102 101 101 102 102 103 103 103 103 105 105 105 105 103 103 103 103 105 106 106 106 107 107 107 107 107 108 108 107 107 107 107 107 107 107 107 107 108 108 108 108 108 107 107 106 106 107 106 106 107 106 106 106 106 106 106 106 106 106 106 107 107 108 108 108 108 110 110 110 110 108 108 107 107 107 107 107 107 107 107 107 107 107 107 107 106 106 106 106 106 106 107 107 107 107 108 108 108 108 108 107 107 107 107 107 107 106 106 105 105 105 105 105 0 107 107 107 107 107 107 107 107 107 107 107 107 107 107 107 107 107 107 107 107 107 107 107 107 107 107 107 107 106 106 106 106 105 105 106 107 107 108 108 108 108 108 107 107 107 107 107 107 107 107 107 107 107 107 108 108 108 111 111 111 108 107 107 107 107 107 107 108 108 108 110 110 108 107 107 107 107 107 107 107 108 108 110 111 112 112 112 111 111 110 108 107 107 107 107 107 107 107 107 107 107 107 107 108 107 107 107 107 107 107 107 107 107 108 108 110 110 110 110 110 108 108 110 108 107 107 108 108 108 108 108 108 108 110 110 110 110 0 0 0 0 0 0 0 0 0 108 108 108 108 108 108 108 108 110 107 107 107 107 107 107 107 108 107 107 108 108 110 110 110 110 111 110 108 108 108 108 108 108 107 107 108 108 108 108 108 108 108 108 108 108 108 108 108 108 108 108 108 108 108 108 108 108 108 107 106 106 106 107 107 107 107 107 107 107 107 0 0 0 108 108 108 108 108 107 106 106 106 106 106 107 107 107 108 108 108 110 108 108 108 108 108 108 108 108 107 107 107 107 107 108 108 108 108 108 108 108 108 108 107 107 107 107 106 105 105 105 103 103 103 107 107 107 108 108 108 107 107 107 107 107 107 107 107 107 107 107 107 107 107 107 107 106 106 106 106 106 106 106 105 105 105 105 106 106 106 107 107 107 107 107 107 107 107 106 106 105 102 102 102 102 102 102 102 102 102 103 103 103 105 105 105 105 105 105 105 107 0 0 0 0 0 0 0 0 0 0 0 0 0 0 0 0 0 0 0 0 0 0 0 0 0 0 0 0 0 0 0 0 0 0 0 0 0 0 0 0 0 0 0 0 0 0 0 0 0 0 0 0 0 0 0 0 0 0 0 0 0 0 0 0 0 0 0 0 0 0 0 0 0 0 0 0 0 0 0 0 0 0 0 0 0 0 0 0 0 0 0 0 0 0 0 0 0 0 0 0 0 0 0 0 0 0 0 0 0 0 0 0 0 0 0 0 0 0 0 0 0 0 0 0 0 0 0 0 0
0 0 0 0 0 0 0 0 0 0 0 0 0 0 0 0 0 0 0 0 0 0 0 0 0 0 0 0 0 0 98 98 98 98 98 99 99 97 97 97 98 97 94 94 95 96 97 98 98 98 99 99 99 100 100 100 100 101 102 102 102 102 102 102 102 103 103 103 103 105 105 102 102 102 102 102 103 105 106 106 107 107 107 107 107 107 107 107 107 107 107 107 107 107 107 107 107 107 108 108 108 107 107 107 107 108 108 107 107 107 107 107 107 106 106 106 106 106 106 106 107 107 108 108 108 110 110 110 110 108 108 108 107 107 107 107 107 107 107 107 107 107 106 106 106 106 106 106 105 105 105 106 106 106 107 107 108 108 107 107 107 107 107 107 107 107 107 106 106 106 106 106 107 0 107 107 107 107 107 107 107 107 107 107 107 107 107 107 107 107 107 107 108 108 108 108 107 107 107 107 107 107 106 106 106 106 106 106 106 107 108 108 108 108 108 108 108 108 108 108 108 108 108 108 107 107 106 106 108 108 108 111 111 112 108 108 108 108 108 108 108 108 110 110 111 110 108 107 107 107 107 107 107 108 108 108 110 111 112 112 112 111 111 110 107 107 107 107 107 107 107 107 107 107 107 107 107 107 107 107 107 107 107 107 107 107 107 108 108 110 110 110 111 111 108 108 110 108 108 108 108 108 108 108 108 108 108 110 108 108 110 0 0 0 0 0 0 0 0 0 108 108 108 108 108 108 108 108 110 107 107 107 107 107 107 107 108 107 107 108 108 110 110 110 110 110 108 108 107 107 107 107 107 107 107 108 108 108 108 108 108 108 108 108 108 108 108 108 108 108 108 108 108 108 108 108 108 108 107 107 106 106 107 107 107 107 107 107 107 107 0 0 0 0 110 107 107 107 107 106 106 106 106 106 107 107 107 108 108 108 108 108 108 108 108 108 108 107 107 107 107 107 107 108 108 108 108 108 108 108 108 108 108 108 108 108 107 106 105 105 105 103 103 106 106 107 107 108 108 108 107 107 107 107 106 106 107 107 107 107 107 107 107 107 107 107 107 107 107 107 107 106 106 106 106 105 105 106 106 106 106 106 107 107 107 107 106 106 105 105 105 101 101 102 102 102 102 102 102 102 103 103 103 105 105 105 105 105 105 106 106 0 0 0 0 0 0 0 0 0 0 0 0 0 0 0 0 0 0 0 0 0 0 0 0 0 0 0 0 0 0 0 0 0 0 0 0 0 0 0 0 0 0 0 0 0 0 0 0 0 0 0 0 0 0 0 0 0 0 0 0 0 0 0 0 0 0 0 0 0 0 0 0 0 0 0 0 0 0 0 0 0 0 0 0 0 0 0 0 0 0 0 0 0 0 0 0 0 0 0 0 0 0 0 0 0 0 0 0 0 0 0 0 0 0 0 0 0 0 0 0 0 0 0 0 0 0 0 0 0
0 0 0 0 0 0 0 0 0 0 0 0 0 0 0 0 0 0 0 0 0 0 0 0 0 0 0 0 0 99 98 98 98 98 98 99 99 97 96 96 98 94 94 94 95 96 97 98 98 98 99 98 98 101 102 100 100 101 102 102 102 102 102 102 103 103 103 103 103 102 102 102 102 102 102 102 103 105 107 107 107 107 107 107 107 107 107 107 106 106 106 106 107 107 107 107 107 107 107 108 108 107 107 107 108 107 107 107 107 107 107 106 106 106 106 106 106 106 106 106 106 107 107 107 107 108 108 108 108 108 107 107 107 107 107 107 107 107 107 107 107 107 106 106 106 106 106 106 105 103 103 105 106 106 107 107 107 107 107 107 107 107 107 107 107 107 107 106 106 106 106 107 107 106 107 107 107 107 107 107 106 106 107 106 106 106 107 107 107 107 108 108 108 108 108 108 107 107 107 107 107 106 103 103 103 106 106 106 106 107 107 108 108 108 108 108 108 108 108 108 110 110 110 107 107 107 106 106 108 108 108 111 111 112 108 108 108 108 108 108 108 108 110 111 111 110 108 108 107 107 107 107 108 108 108 108 110 110 112 112 111 111 111 110 107 107 107 107 107 107 107 107 107 107 106 106 106 107 107 107 107 107 107 107 107 107 107 107 108 108 108 110 111 111 111 108 108 108 108 108 108 108 108 108 108 108 108 108 108 108 108 108 108 108 108 0 0 0 0 0 108 108 108 108 108 108 108 108 108 107 107 107 107 107 107 108 108 108 108 108 110 110 110 110 110 110 108 108 107 107 107 107 107 107 108 108 108 108 108 108 108 107 107 107 107 107 107 107 107 107 108 108 108 108 108 108 108 108 108 108 107 107 107 107 107 107 107 107 107 107 107 0 0 107 0 107 106 105 105 106 105 105 106 106 107 107 107 107 108 108 108 108 108 108 107 107 108 107 107 107 107 107 107 108 108 108 108 108 108 110 108 108 108 108 108 108 107 107 106 105 105 105 105 106 106 107 107 108 107 107 106 106 107 106 106 106 106 107 107 107 107 107 107 107 107 107 107 107 107 107 107 107 107 106 106 106 106 106 106 106 106 106 107 107 106 106 106 106 105 105 105 101 101 102 102 102 102 102 102 102 103 103 103 105 105 105 106 106 106 106 106 106 0 0 0 0 0 0 0 0 0 0 0 0 0 0 0 0 0 0 0 0 0 0 0 0 0 0 0 0 0 0 0 0 0 0 0 0 0 0 0 0 0 0 0 0 0 0 0 0 0 0 0 0 0 0 0 0 0 0 0 0 0 0 0 0 0 0 0 0 0 0 0 0 0 0 0 0 0 0 0 0 0 0 0 0 0 0 0 0 0 0 0 0 0 0 0 0 0 0 0 0 0 0 0 0 0 0 0 0 0 0 0 0 0 0 0 0 0 0 0 0 0 0 0 0 0 0 0 0
0 0 0 0 0 0 0 0 0 0 0 0 0 0 0 0 0 0 0 0 0 0 0 0 0 0 0 0 0 99 99 98 98 98 98 99 98 96 96 96 97 94 94 94 95 96 97 98 98 98 98 98 98 99 103 102 102 102 103 103 103 102 102 102 103 102 102 103 102 102 102 102 102 102 102 102 103 103 107 107 107 108 108 108 108 107 107 107 106 106 106 106 106 106 107 107 107 107 107 108 107 107 107 107 107 107 107 107 107 107 106 106 106 105 105 106 106 105 105 106 106 107 107 107 107 107 107 108 107 107 107 107 107 107 107 107 107 107 107 107 107 107 106 106 106 106 106 106 105 103 103 105 106 106 107 107 107 107 107 107 107 107 107 107 107 107 107 107 106 106 106 107 106 106 106 106 106 106 106 106 106 106 106 106 106 106 107 107 107 107 108 108 108 108 108 108 107 107 107 107 107 105 103 103 103 103 103 103 106 107 107 108 108 108 108 108 108 108 108 108 110 110 110 107 107 107 108 108 108 108 108 111 111 112 108 108 108 108 108 108 108 108 110 111 111 110 108 108 107 107 107 107 108 108 108 108 110 110 111 111 111 110 110 110 108 107 107 107 107 107 107 107 107 107 106 106 106 107 107 107 107 107 107 107 107 107 107 107 108 108 108 110 111 111 111 108 108 108 107 107 107 107 108 108 108 108 108 108 108 108 107 107 107 107 108 0 0 0 0 0 0 108 108 108 108 108 108 108 108 107 107 107 107 107 107 108 108 108 108 108 110 110 110 111 111 111 108 108 108 108 108 108 107 107 108 108 108 108 108 108 108 107 107 107 107 107 107 107 107 107 108 108 108 108 108 108 108 108 108 108 107 107 107 107 107 107 107 107 107 107 107 0 0 0 107 107 106 103 103 105 105 105 106 106 106 107 107 107 108 108 108 108 108 108 107 107 107 107 107 107 107 107 107 108 108 108 108 108 108 110 110 108 108 108 108 108 107 107 106 105 105 106 106 106 107 107 107 108 107 107 106 106 107 106 106 106 106 106 106 107 106 106 106 106 106 106 106 106 106 106 107 107 107 107 107 107 107 107 107 107 107 107 107 107 106 106 106 106 105 103 102 101 101 102 102 102 102 102 102 102 103 103 103 105 105 105 105 105 105 105 105 105 0 0 0 0 0 0 0 0 0 0 0 0 0 0 0 0 0 0 0 0 0 0 0 0 0 0 0 0 0 0 0 0 0 0 0 0 0 0 0 0 0 0 0 0 0 0 0 0 0 0 0 0 0 0 0 0 0 0 0 0 0 0 0 0 0 0 0 0 0 0 0 0 0 0 0 0 0 0 0 0 0 0 0 0 0 0 0 0 0 0 0 0 0 0 0 0 0 0 0 0 0 0 0 0 0 0 0 0 0 0 0 0 0 0 0 0 0 0 0 0 0 0 0 0 0 0 0 0
0 0 0 0 0 0 0 0 0 0 0 0 0 0 0 0 91 91 91 0 0 0 0 0 0 0 0 0 0 99 99 98 98 98 98 98 98 96 96 96 97 97 97 98 98 98 98 98 98 98 98 98 98 99 103 106 102 102 103 103 103 102 102 102 103 102 102 103 102 102 102 102 103 103 103 103 103 103 103 108 108 108 108 108 108 107 107 107 107 107 106 106 106 106 106 107 107 107 107 107 107 107 107 107 107 107 107 107 107 107 106 106 106 105 105 106 106 105 105 106 106 107 107 107 107 107 107 108 107 107 107 107 107 107 107 107 107 107 107 107 107 107 106 106 106 106 106 106 105 105 105 106 106 106 107 107 107 107 107 107 107 107 107 107 107 107 107 107 106 106 106 107 106 106 106 106 106 106 106 106 106 106 106 106 106 107 107 107 107 108 108 108 108 110 108 108 108 107 107 107 106 105 103 103 103 103 103 103 106 107 107 108 108 108 107 107 107 107 108 108 108 110 110 108 107 107 110 110 110 110 110 111 111 111 110 108 108 108 108 108 108 108 110 111 111 110 108 108 107 107 107 107 107 108 108 108 110 110 111 111 111 110 110 108 108 107 107 107 107 107 107 107 107 107 107 105 105 106 107 106 106 106 107 107 107 107 107 108 108 108 108 110 110 110 110 107 107 107 107 107 107 107 108 108 108 108 108 108 108 108 107 107 107 107 108 0 0 0 0 0 0 108 108 108 108 108 108 108 108 107 107 107 107 107 107 108 108 108 108 108 108 108 110 110 110 110 108 108 108 108 108 108 108 108 108 110 110 110 108 108 108 108 108 108 107 107 107 107 107 107 108 108 108 108 108 108 108 108 108 108 107 107 107 107 107 107 107 107 107 107 107 0 0 0 106 0 103 103 103 105 105 105 106 106 106 107 107 107 108 108 108 107 107 107 107 107 107 106 106 107 107 107 107 108 108 108 107 107 108 108 108 108 108 108 108 108 108 108 107 105 105 106 106 106 107 108 108 108 108 108 107 107 107 106 106 106 106 106 106 106 105 105 106 105 105 105 106 106 106 106 107 107 107 106 106 107 107 107 107 107 107 107 107 107 106 106 106 0 0 102 102 102 102 102 102 103 103 103 103 103 103 103 103 103 105 105 105 105 105 105 105 105 0 0 0 0 0 0 0 0 0 0 0 0 0 0 0 0 0 0 0 0 0 0 0 0 0 0 0 0 0 0 0 0 0 0 0 0 0 0 0 0 0 0 0 0 0 0 0 0 0 0 0 0 0 0 0 0 0 0 0 0 0 0 0 0 0 0 0 0 0 0 0 0 0 0 0 0 0 0 0 0 0 0 0 0 0 0 0 0 0 0 0 0 0 0 0 0 0 0 0 0 0 0 0 0 0 0 0 0 0 0 0 0 0 0 0 0 0 0 0 0 0 0 0 0 0 0 0 0
0 0 0 0 0 0 0 90 90 90 90 90 0 0 90 90 91 91 91 0 0 0 0 0 0 0 0 0 0 98 98 98 98 97 97 97 97 97 97 97 97 97 97 98 98 98 98 98 98 98 98 98 98 98 99 100 100 101 102 102 103 102 102 102 102 102 102 102 102 102 102 102 103 103 103 103 103 103 0 108 108 108 108 108 108 107 107 107 106 106 106 106 106 106 106 107 107 107 107 107 107 107 107 107 107 107 107 107 107 107 107 106 106 106 106 106 106 105 105 106 106 107 107 107 107 108 108 108 107 107 107 107 107 107 107 107 107 107 107 107 107 107 107 106 106 107 107 107 106 106 106 106 106 106 107 107 107 107 107 107 107 107 107 107 107 107 107 107 107 107 107 107 107 107 106 106 106 106 106 106 106 106 107 107 107 107 107 107 108 108 108 108 108 108 108 108 107 107 107 107 106 106 103 103 103 103 103 107 107 108 108 108 108 108 107 107 107 107 108 108 108 108 110 108 108 110 110 110 110 110 110 110 110 110 110 108 107 107 108 108 108 108 108 110 110 110 108 108 107 107 107 107 107 108 108 108 110 110 110 110 110 110 108 108 108 107 107 107 107 108 107 107 107 107 107 105 105 106 107 106 106 106 107 107 107 107 107 108 108 108 108 110 110 110 110 107 107 107 107 107 107 108 108 108 108 110 110 108 108 108 108 108 108 108 108 0 0 0 110 0 0 108 108 108 108 108 108 108 107 107 107 107 107 107 107 108 108 108 108 108 108 108 108 108 108 108 108 108 108 108 108 108 108 108 108 110 110 110 110 110 110 108 108 108 107 107 107 107 108 108 108 108 108 108 108 108 108 108 108 108 107 107 107 108 107 107 107 107 107 107 107 107 106 106 106 0 107 105 105 106 106 106 106 106 107 107 107 107 107 108 107 107 107 107 107 107 107 106 106 107 106 106 107 107 107 107 107 107 107 107 107 108 108 108 108 108 108 108 107 107 107 106 106 106 107 108 108 108 108 108 107 107 107 107 106 106 107 107 106 105 105 105 105 103 103 105 105 106 106 106 107 107 107 106 106 107 107 107 107 107 107 107 107 107 107 0 107 0 0 102 102 102 102 103 103 103 103 103 103 103 103 103 103 103 105 105 105 105 105 105 105 106 0 0 0 0 0 0 0 0 0 0 0 0 0 0 0 0 0 0 0 0 0 0 0 0 0 0 0 0 0 0 0 0 0 0 0 0 0 0 0 0 0 0 0 0 0 0 0 0 0 0 0 0 0 0 0 0 0 0 0 0 0 0 0 0 0 0 0 0 0 0 0 0 0 0 0 0 0 0 0 0 0 0 0 0 0 0 0 0 0 0 0 0 0 0 0 0 0 0 0 0 0 0 0 0 0 0 0 0 0 0 0 0 0 0 0 0 0 0 0 0 0 0 0 0 0 0 0 0
0 0 0 0 0 0 0 90 90 90 90 90 91 91 90 90 91 91 91 91 0 0 96 95 95 0 0 0 0 98 97 97 97 97 97 97 97 96 96 97 97 95 95 95 95 95 98 99 98 98 98 98 98 98 99 99 100 101 102 102 103 102 102 102 102 101 101 102 102 102 102 102 103 103 103 103 103 103 0 103 0 0 0 108 108 107 107 107 106 106 106 106 106 106 107 107 107 107 107 107 107 107 107 107 107 107 107 107 107 107 107 106 106 106 106 106 106 105 105 106 106 107 108 107 107 107 107 107 107 107 106 106 107 107 107 107 107 107 107 107 107 107 107 105 105 107 107 107 106 106 106 106 106 106 106 107 107 107 107 107 107 107 107 107 107 107 107 107 107 107 107 107 107 107 106 106 106 106 106 106 106 106 107 107 107 107 107 107 107 108 108 108 108 108 108 108 107 107 107 107 106 106 105 103 103 107 107 107 107 108 108 108 108 108 107 107 107 107 108 108 108 108 110 110 110 110 110 110 110 110 110 110 110 110 108 108 107 107 107 108 108 108 108 110 110 110 108 108 107 107 107 108 108 108 108 108 108 108 110 110 110 110 108 108 108 107 107 107 107 108 107 107 107 106 106 105 105 106 107 106 106 107 107 107 107 107 107 108 108 108 108 111 110 110 110 107 107 107 107 107 107 108 108 108 108 110 110 108 108 108 107 107 108 108 108 108 108 108 110 110 110 110 110 108 108 108 108 108 107 107 107 107 107 107 107 108 108 108 108 108 108 108 108 108 108 108 107 107 107 108 108 108 108 108 110 110 110 110 108 108 110 110 108 108 108 107 107 107 108 108 108 108 108 110 110 110 108 108 108 108 107 107 107 108 108 108 108 108 108 107 107 107 106 106 106 107 107 107 106 106 106 106 106 106 107 107 107 107 107 107 107 107 106 106 106 106 106 106 106 103 103 103 106 106 106 106 107 107 107 107 107 108 108 108 108 108 108 107 107 107 107 106 106 107 107 108 108 108 108 108 107 107 107 106 106 106 106 107 106 105 105 105 103 103 103 103 105 105 106 106 106 106 107 107 107 107 107 107 107 107 107 107 108 108 0 0 0 0 0 103 103 105 105 105 105 105 105 105 103 103 103 103 105 105 105 105 106 105 105 106 106 106 0 0 0 0 0 0 0 0 0 0 0 0 0 0 0 0 0 0 0 0 0 0 0 0 0 0 0 0 0 0 0 0 0 0 0 0 0 0 0 0 0 0 0 0 0 0 0 0 0 0 0 0 0 0 0 0 0 0 0 0 0 0 0 0 0 0 0 0 0 0 0 0 0 0 0 0 0 0 0 0 0 0 0 0 0 0 0 0 0 0 0 0 0 0 0 0 0 0 0 0 0 0 0 0 0 0 0 0 0 0 0 0 0 0 0 0 0 0 0 0 0 0 0 0 0 0 0 0
0 0 0 0 0 0 0 0 0 90 90 91 91 91 90 90 91 91 91 91 91 92 92 94 94 94 95 97 97 97 97 97 97 97 97 97 97 96 96 97 97 95 95 95 95 95 98 99 99 99 99 98 98 98 99 99 100 101 102 102 103 102 102 102 102 101 101 101 101 101 102 102 103 103 103 103 103 103 103 0 0 0 0 0 0 0 0 0 107 107 106 106 106 106 107 107 107 107 107 107 107 107 107 107 107 107 107 107 107 107 107 107 107 107 107 107 107 105 105 107 107 108 108 107 106 106 106 107 107 107 106 106 107 107 107 107 107 107 107 107 107 107 107 105 105 107 107 107 107 107 106 106 105 105 106 107 107 107 107 107 107 107 107 107 107 107 107 107 107 107 107 107 107 107 106 106 106 106 106 106 106 107 107 107 107 107 107 107 107 107 107 107 107 108 108 108 107 107 106 106 106 106 106 107 107 108 108 108 108 108 108 108 108 108 107 107 107 107 108 108 108 108 110 110 110 110 110 110 110 110 110 108 108 110 108 107 107 107 107 108 108 108 108 110 111 110 108 108 108 108 108 108 108 108 108 108 108 108 110 110 108 108 108 108 107 107 107 107 107 108 108 106 106 105 105 105 105 105 106 107 107 107 107 107 107 108 108 108 108 108 108 110 108 108 108 107 107 107 107 107 107 108 108 108 108 110 108 108 108 108 107 107 108 108 108 108 108 108 108 110 110 110 110 108 108 108 108 110 108 108 108 108 107 107 108 108 108 108 108 108 108 108 107 107 107 107 107 107 107 107 107 108 108 110 110 110 110 110 108 108 110 108 108 108 108 107 107 107 108 108 108 108 108 110 110 110 108 108 108 108 107 107 108 108 108 108 108 108 108 108 108 108 106 106 106 107 107 107 107 107 107 107 107 107 107 107 108 107 107 107 107 106 106 106 106 106 106 106 106 103 103 103 106 106 106 106 107 107 107 107 107 108 108 108 108 108 108 107 107 107 107 106 106 107 107 108 108 108 108 107 107 107 106 106 106 106 106 107 107 106 105 105 103 103 103 103 105 105 105 106 106 106 108 0 107 107 107 107 107 107 107 107 108 0 0 0 0 0 0 105 105 106 105 105 105 105 105 105 105 105 105 105 105 105 105 105 106 106 106 106 106 106 0 0 0 0 0 0 0 0 0 0 0 0 0 0 0 0 0 0 0 0 0 0 0 0 0 0 0 0 0 0 0 0 0 0 0 0 0 0 0 0 0 0 0 0 0 0 0 0 0 0 0 0 0 0 0 0 0 0 0 0 0 0 0 0 0 0 0 0 0 0 0 0 0 0 0 0 0 0 0 0 0 0 0 0 0 0 0 0 0 0 0 0 0 0 0 0 0 0 0 0 0 0 0 0 0 0 0 0 0 0 0 0 0 0 0 0 0 0 0 0 0 0 0 0 0 0 0 0
0 0 0 0 0 0 0 0 0 92 91 91 91 91 90 90 90 90 90 90 90 91 92 93 94 94 95 96 96 97 97 97 97 97 97 97 97 97 97 98 97 95 95 97 98 98 98 99 99 99 100 100 100 100 99 99 100 100 101 102 102 102 102 102 101 101 101 101 101 101 102 102 103 103 103 103 103 105 0 0 0 0 0 0 0 0 0 0 105 105 106 105 105 105 107 107 107 107 107 107 107 107 107 107 107 107 107 107 107 107 107 107 106 106 107 107 107 107 107 107 107 107 106 106 105 105 106 106 106 106 106 106 107 107 107 107 107 107 107 107 107 106 106 107 107 107 107 107 107 107 106 105 105 105 105 107 107 107 107 107 107 108 107 107 107 107 108 107 107 107 107 107 107 107 107 107 106 106 107 107 107 107 107 107 107 107 107 107 107 107 107 107 107 107 107 107 107 106 106 106 105 105 105 105 105 108 108 108 108 108 108 108 108 107 107 107 107 107 108 108 108 108 110 110 110 110 110 110 110 110 110 108 108 108 108 107 106 106 107 108 108 108 108 110 111 110 108 108 108 108 108 108 108 108 108 108 108 108 108 110 108 108 108 108 107 107 107 107 107 107 106 106 106 105 105 105 105 105 106 107 107 107 107 108 108 108 108 108 108 108 108 108 108 108 108 107 107 107 107 107 107 108 108 108 108 108 108 108 108 108 107 107 108 108 108 108 108 108 108 110 110 110 110 110 110 110 110 110 110 108 108 108 107 107 108 108 108 108 108 108 108 108 107 107 107 107 107 107 107 107 107 108 108 110 110 111 110 110 108 108 108 108 108 108 108 108 108 108 110 110 110 110 110 108 108 108 108 108 108 108 108 108 108 108 108 108 108 110 110 108 108 108 107 107 108 108 107 107 107 107 107 107 107 107 107 108 108 108 107 107 107 106 106 106 106 106 106 106 106 106 105 105 106 106 106 106 107 107 107 107 108 108 108 108 108 108 108 107 107 107 107 106 106 107 107 108 108 108 108 107 107 107 106 106 106 106 106 107 107 106 106 105 105 103 103 103 103 105 105 107 107 107 0 0 0 107 107 107 107 107 107 107 108 0 0 0 0 0 0 0 106 106 105 105 105 105 105 105 105 105 103 103 103 103 105 105 106 105 105 105 105 106 106 0 0 0 0 0 0 0 0 0 0 0 0 0 0 0 0 0 0 0 0 0 0 0 0 0 0 0 0 0 0 0 0 0 0 0 0 0 0 0 0 0 0 0 0 0 0 0 0 0 0 0 0 0 0 0 0 0 0 0 0 0 0 0 0 0 0 0 0 0 0 0 0 0 0 0 0 0 0 0 0 0 0 0 0 0 0 0 0 0 0 0 0 0 0 0 0 0 0 0 0 0 0 0 0 0 0 0 0 0 0 0 0 0 0 0 0 0 0 0 0 0 0 0 0 0 0 0
0 0 0 0 0 0 0 0 0 92 91 91 91 91 90 90 90 90 90 90 90 91 92 93 94 94 95 96 96 97 97 97 97 97 97 97 97 97 97 96 96 95 95 96 97 97 98 99 99 99 100 100 100 100 99 99 100 100 101 102 102 102 102 101 101 100 100 100 100 100 101 101 102 103 105 105 105 105 0 0 0 0 0 0 0 0 0 0 105 105 106 105 105 105 107 107 107 107 107 107 107 107 107 107 107 107 107 107 107 107 107 107 106 106 107 107 107 107 107 107 107 107 106 106 105 105 106 106 106 106 106 106 107 107 107 107 107 107 107 107 107 106 106 107 107 107 107 107 107 107 106 105 105 105 105 107 107 106 106 106 107 107 107 107 107 107 108 107 107 107 107 107 107 107 107 107 107 107 107 107 107 107 108 108 107 107 107 107 107 107 107 107 107 107 107 107 107 106 106 106 105 105 105 105 105 108 110 108 108 108 108 108 108 107 107 107 107 107 108 107 107 108 108 110 110 110 110 110 110 110 110 108 108 108 107 107 106 106 106 108 108 108 108 110 111 110 108 108 108 108 108 108 108 108 108 108 108 108 108 110 108 108 108 108 107 107 107 107 107 107 106 106 106 105 105 105 105 105 106 107 107 107 107 108 110 108 108 108 108 108 108 108 107 107 107 107 107 107 107 107 107 108 108 108 108 108 110 110 108 108 107 107 108 108 110 110 108 108 108 111 111 111 110 110 110 111 111 111 110 110 110 108 108 108 108 108 108 107 107 108 108 108 107 107 107 108 107 107 107 108 108 108 108 108 108 108 108 108 108 108 108 108 108 108 108 108 108 110 110 110 110 110 110 108 108 108 108 108 108 108 108 108 108 108 110 110 110 108 108 108 107 107 107 107 107 107 107 107 107 107 107 107 107 107 107 108 108 108 107 107 107 106 106 106 106 106 107 106 106 106 106 106 106 106 106 106 107 107 107 107 107 107 108 108 108 108 108 108 107 107 107 107 107 107 107 108 108 108 108 108 107 107 107 106 106 106 107 107 107 106 106 103 102 102 103 103 103 105 105 0 0 0 0 0 0 107 107 107 107 107 108 108 108 0 0 0 0 0 0 0 106 106 106 105 105 105 105 105 105 105 103 103 103 103 105 107 107 105 105 105 105 105 106 0 0 0 0 0 0 0 0 0 0 0 0 0 0 0 0 0 0 0 0 0 0 0 0 0 0 0 0 0 0 0 0 0 0 0 0 0 0 0 0 0 0 0 0 0 0 0 0 0 0 0 0 0 0 0 0 0 0 0 0 0 0 0 0 0 0 0 0 0 0 0 0 0 0 0 0 0 0 0 0 0 0 0 0 0 0 0 0 0 0 0 0 0 0 0 0 0 0 0 0 0 0 0 0 0 0 0 0 0 0 0 0 0 0 0 0 0 0 0 0 0 0 0 0 0 0 0
0 0 0 0 0 0 0 94 94 92 91 91 91 90 89 89 90 90 90 91 91 92 92 92 94 94 94 94 97 98 97 97 97 97 97 97 97 97 97 94 94 94 96 95 95 95 97 98 98 99 99 99 99 99 99 99 99 99 100 100 101 101 101 100 100 100 100 100 100 100 101 101 102 103 105 105 105 105 105 108 0 0 0 0 0 0 0 0 105 105 106 106 106 106 107 107 107 106 106 106 107 107 107 107 107 107 106 106 106 106 106 106 106 106 107 107 107 107 107 107 107 107 106 106 106 106 106 107 106 106 107 107 107 107 107 107 107 107 107 107 107 107 107 107 107 107 107 107 107 107 106 106 106 106 106 107 107 106 106 106 107 107 107 107 107 107 107 107 107 107 107 107 108 108 108 107 107 107 107 108 108 108 108 108 108 107 107 107 107 107 107 107 107 107 107 107 107 107 107 106 105 105 105 105 110 110 110 110 110 108 108 108 108 107 107 107 107 107 108 107 107 108 108 108 110 110 110 110 110 110 110 108 108 108 107 107 105 105 106 108 108 110 110 111 112 110 110 108 108 108 108 108 108 108 110 0 0 0 0 110 108 108 108 108 107 107 107 107 108 108 108 108 107 107 106 106 106 107 107 107 108 108 108 110 110 108 108 108 108 108 107 107 107 107 107 107 107 107 107 107 108 108 108 108 108 108 110 110 110 108 108 108 108 108 110 110 110 110 111 111 111 112 108 108 111 111 111 111 110 110 110 108 108 108 108 108 107 107 107 108 108 108 107 107 107 108 107 107 107 107 108 108 108 110 110 108 108 108 108 108 108 108 108 108 110 110 111 111 111 111 111 110 108 108 108 108 108 108 108 108 108 108 108 108 108 108 108 108 108 107 107 107 107 106 106 107 107 107 107 107 107 107 107 107 107 108 108 108 108 107 107 106 106 106 106 107 107 107 107 107 107 107 106 106 106 106 107 107 107 107 107 107 107 107 108 108 108 108 108 107 107 108 108 108 108 108 108 108 108 108 108 108 107 107 107 107 107 107 107 106 106 103 102 102 103 103 103 108 108 0 0 0 0 0 0 0 108 107 107 107 108 108 108 0 0 0 0 0 0 0 106 106 106 105 105 105 105 105 105 105 103 103 103 103 105 107 107 105 105 105 105 105 0 0 0 0 0 0 0 0 0 0 0 0 0 0 0 0 0 0 0 0 0 0 0 0 0 0 0 0 0 0 0 0 0 0 0 0 0 0 0 0 0 0 0 0 0 0 0 0 0 0 0 0 0 0 0 0 0 0 0 0 0 0 0 0 0 0 0 0 0 0 0 0 0 0 0 0 0 0 0 0 0 0 0 0 0 0 0 0 0 0 0 0 0 0 0 0 0 0 0 0 0 0 0 0 0 0 0 0 0 0 0 0 0 0 0 0 0 0 0 0 0 0 0 0 0 0 0 0
0 0 0 0 0 0 0 94 94 93 92 92 92 90 89 89 90 90 91 91 91 92 92 92 93 94 94 94 96 96 96 96 96 96 96 97 97 97 0 94 94 94 95 95 95 95 97 98 98 99 99 99 99 99 99 99 99 99 99 98 98 98 99 99 99 99 100 100 100 100 101 101 102 103 103 103 103 103 103 107 108 0 0 0 0 0 0 0 103 103 106 106 106 106 107 107 107 106 106 106 107 107 107 107 107 107 106 106 106 106 106 106 106 106 107 107 107 107 107 107 107 107 107 107 107 107 107 107 107 107 107 107 107 107 108 108 0 107 107 107 107 107 107 107 107 107 107 107 107 107 106 106 107 106 106 107 107 107 107 107 107 107 107 107 107 107 107 107 107 107 107 107 108 108 108 107 107 108 108 108 108 108 108 108 108 108 107 107 107 107 107 107 107 107 107 107 107 107 107 108 106 106 110 110 110 110 110 110 110 108 108 108 108 107 107 107 0 108 108 108 108 108 108 108 110 108 108 108 108 108 108 108 108 108 107 107 105 105 107 110 110 111 111 112 112 112 110 108 108 110 110 110 110 110 0 0 0 0 0 0 108 108 108 108 107 107 107 107 108 108 108 108 108 108 108 107 107 107 108 108 108 108 108 110 108 108 108 108 108 108 107 107 107 107 107 107 107 107 107 108 108 108 108 108 108 108 108 108 110 108 108 108 108 108 110 110 110 110 111 111 111 110 108 108 110 111 111 111 110 110 110 108 108 108 108 108 107 107 107 108 108 108 108 107 107 107 107 107 107 107 107 108 108 110 110 108 108 108 108 108 108 108 108 108 110 111 111 111 111 111 110 108 107 107 108 107 107 108 108 108 107 107 108 108 108 108 108 108 108 107 107 107 107 106 106 107 107 107 107 107 107 107 107 107 107 107 108 108 107 107 107 107 107 106 106 107 108 107 107 107 107 107 106 106 106 107 107 107 107 107 107 107 107 107 107 107 107 108 108 107 107 108 108 108 108 108 108 108 108 108 108 108 108 108 107 107 107 107 107 107 106 106 102 102 102 108 108 108 0 0 0 0 0 0 0 0 0 108 107 107 107 107 107 108 0 0 0 0 0 0 106 106 106 105 105 105 105 105 105 105 105 105 105 105 106 107 107 105 105 105 105 105 0 0 0 0 0 0 0 0 0 0 0 0 0 0 0 0 0 0 0 0 0 0 0 0 0 0 0 0 0 0 0 0 0 0 0 0 0 0 0 0 0 0 0 0 0 0 0 0 0 0 0 0 0 0 0 0 0 0 0 0 0 0 0 0 0 0 0 0 0 0 0 0 0 0 0 0 0 0 0 0 0 0 0 0 0 0 0 0 0 0 0 0 0 0 0 0 0 0 0 0 0 0 0 0 0 0 0 0 0 0 0 0 0 0 0 0 0 0 0 0 0 0 0 0 0 0 0 0
0 0 0 0 0 0 0 95 95 94 94 93 93 92 91 91 91 91 0 92 0 92 92 92 93 94 94 96 96 96 96 95 95 95 96 97 97 97 0 94 94 94 95 95 95 95 97 98 98 99 100 100 100 99 99 99 99 99 99 98 98 98 99 99 99 99 99 100 100 100 101 101 102 103 103 103 103 103 103 105 108 0 0 0 0 0 0 0 103 103 106 106 106 106 106 106 106 105 105 105 107 107 107 107 107 107 107 105 105 106 106 106 106 107 107 107 107 107 107 107 107 107 107 107 107 107 107 107 107 107 107 107 107 108 108 108 0 107 107 107 107 107 107 107 107 107 107 107 107 107 105 105 106 106 106 107 107 107 107 107 107 107 107 107 107 107 107 107 108 108 108 108 108 108 108 108 108 108 108 108 108 108 108 110 108 108 108 107 107 107 107 107 107 107 107 108 108 108 108 108 108 108 108 108 108 108 110 110 110 108 107 107 108 107 107 0 0 0 110 110 108 108 108 108 110 108 108 108 108 108 108 108 108 108 107 107 107 107 107 110 110 111 111 112 112 112 110 108 108 110 111 110 110 0 0 0 0 0 0 0 0 108 108 108 108 108 108 108 108 111 111 111 111 110 108 108 108 110 110 110 110 110 110 108 108 107 107 108 108 108 108 108 108 108 108 107 107 108 108 108 108 108 108 108 108 108 108 108 108 108 108 108 110 110 110 108 108 108 108 110 110 108 108 108 110 110 111 111 110 110 110 108 108 108 108 108 108 108 108 108 108 108 108 108 107 107 107 107 107 107 107 108 108 110 110 108 108 108 108 108 108 108 108 108 110 112 111 111 110 110 108 108 107 107 108 107 107 107 107 107 107 107 108 108 108 108 108 108 108 107 107 107 107 107 107 107 107 107 107 107 107 107 106 106 107 107 108 107 107 107 107 107 107 106 106 108 108 108 107 107 107 107 106 106 107 107 107 108 108 107 107 107 107 107 107 107 107 108 108 107 107 108 107 107 108 108 108 108 108 108 108 108 108 108 107 107 107 107 107 107 107 107 107 107 108 108 108 108 108 0 0 0 0 0 0 0 108 108 107 107 107 107 107 107 0 0 0 0 0 0 106 106 106 105 103 103 105 105 105 105 105 105 105 106 106 107 107 106 106 107 107 107 0 0 0 0 0 0 0 0 0 0 0 0 0 0 0 0 0 0 0 0 0 0 0 0 0 0 0 0 0 0 0 0 0 0 0 0 0 0 0 0 0 0 0 0 0 0 0 0 0 0 0 0 0 0 0 0 0 0 0 0 0 0 0 0 0 0 0 0 0 0 0 0 0 0 0 0 0 0 0 0 0 0 0 0 0 0 0 0 0 0 0 0 0 0 0 0 0 0 0 0 0 0 0 0 0 0 0 0 0 0 0 0 0 0 0 0 0 0 0 0 0 0 0 0 0 0 0 0
0 0 0 0 0 0 0 94 94 94 94 94 93 93 93 94 94 94 0 0 0 0 0 0 0 55 55 54 96 96 96 95 94 94 94 0 55 0 0 96 96 96 95 95 96 97 97 98 98 100 100 100 100 100 99 99 99 100 100 100 98 97 97 98 98 98 99 99 100 100 102 102 102 103 103 103 105 103 103 105 105 0 0 0 0 0 0 0 103 103 106 106 106 106 106 106 106 105 103 103 107 107 107 107 106 106 107 105 105 106 106 106 106 106 106 106 107 107 107 107 107 106 106 106 106 107 107 107 107 107 107 107 107 108 108 108 0 108 108 0 107 107 107 107 107 107 107 107 107 107 105 105 106 106 106 107 107 107 107 107 107 107 106 106 106 107 107 107 107 107 108 108 108 108 108 108 108 108 108 108 108 108 110 110 108 108 107 107 107 107 106 106 107 107 107 107 107 107 108 106 106 106 107 107 108 108 110 110 108 108 107 107 108 0 0 0 0 0 108 108 108 108 110 110 110 110 110 110 111 111 111 111 108 108 107 107 107 107 108 110 110 111 111 112 112 112 111 110 110 110 111 110 110 110 0 0 0 0 0 0 108 108 108 108 108 108 108 108 111 111 112 111 111 110 110 108 108 110 110 110 110 110 110 108 108 107 107 108 108 108 108 108 108 108 108 108 108 108 108 108 108 108 108 108 108 108 108 108 108 108 108 108 110 110 110 108 108 108 108 110 110 108 108 108 108 110 110 111 110 110 110 108 108 108 108 108 108 108 108 108 108 108 108 108 107 107 107 107 107 107 107 107 108 108 108 108 108 108 108 108 108 108 108 108 110 110 110 110 110 110 108 107 107 107 107 107 107 107 107 107 107 107 108 108 108 108 108 108 108 108 108 108 108 108 108 107 107 106 106 106 106 107 106 106 107 107 108 107 107 107 108 107 107 107 107 108 108 107 106 106 107 107 107 107 107 107 108 108 108 107 107 107 107 107 107 107 107 108 108 107 107 108 107 107 107 107 107 108 108 108 108 108 108 108 107 107 107 107 107 107 107 107 107 107 107 108 108 108 108 110 0 0 0 0 0 0 108 108 107 107 107 107 107 107 0 0 0 0 0 0 0 106 106 105 103 103 105 105 105 105 105 105 106 106 107 107 107 106 106 107 107 107 0 0 0 0 0 0 0 0 0 0 0 0 0 0 0 0 0 0 0 0 0 0 0 0 0 0 0 0 0 0 0 0 0 0 0 0 0 0 0 0 0 0 0 0 0 0 0 0 0 0 0 0 0 0 0 0 0 0 0 0 0 0 0 0 0 0 0 0 0 0 0 0 0 0 0 0 0 0 0 0 0 0 0 0 0 0 0 0 0 0 0 0 0 0 0 0 0 0 0 0 0 0 0 0 0 0 0 0 0 0 0 0 0 0 0 0 0 0 0 0 0 0 0 0 0 0 0 0
0 0 0 0 0 0 0 94 94 94 94 94 93 93 93 94 94 0 0 0 0 0 0 0 0 0 0 0 54 54 54 54 54 55 55 0 55 55 0 97 97 97 95 95 97 97 98 55 55 55 55 55 55 55 54 54 99 99 99 99 98 97 97 98 98 98 99 99 100 100 101 101 101 102 102 103 103 103 103 105 107 0 0 0 54 54 99 99 103 105 106 106 106 106 106 106 106 105 103 103 103 54 54 107 105 105 106 103 103 106 106 106 106 106 106 106 107 107 107 107 107 106 106 106 106 107 107 106 106 107 107 107 107 107 107 107 0 0 0 0 0 108 108 108 108 108 108 108 107 107 106 106 106 106 106 106 106 54 54 54 54 54 105 105 106 106 106 106 107 107 108 108 108 108 108 108 54 54 108 108 108 110 110 110 108 108 107 107 107 107 106 106 107 107 107 107 107 107 107 106 106 106 107 107 108 108 110 110 108 108 107 107 108 108 0 0 0 0 0 110 110 110 110 110 110 110 110 111 111 112 112 111 111 111 107 107 107 107 108 111 111 111 111 112 112 112 110 110 110 110 111 110 110 0 0 0 0 0 0 0 0 108 108 108 108 108 108 108 111 110 108 108 108 108 108 108 108 110 110 110 110 110 110 110 108 108 108 108 108 108 108 108 108 108 108 108 108 108 108 108 108 110 108 108 108 108 108 108 110 108 108 110 110 110 110 110 110 110 110 108 108 108 108 108 108 110 110 111 110 110 110 108 108 108 108 108 108 108 108 108 110 110 110 108 108 108 108 107 107 107 107 107 108 107 107 108 108 108 108 108 108 108 108 108 110 110 110 110 110 110 107 107 107 107 107 107 107 107 107 107 107 107 108 108 107 107 107 108 108 108 107 107 108 108 108 107 107 106 106 106 106 106 106 106 107 107 108 108 107 107 108 107 107 107 107 107 107 107 106 106 107 107 107 107 107 107 107 107 107 107 107 107 107 107 107 107 108 108 108 107 107 107 107 107 107 107 107 108 108 108 108 108 108 108 107 107 107 107 107 106 106 106 107 107 107 107 108 108 108 108 108 108 108 0 0 0 108 108 108 107 107 106 106 107 107 0 0 0 0 0 0 0 107 106 105 105 105 105 105 106 105 105 106 106 107 107 106 106 106 107 107 107 108 0 0 0 0 0 0 0 0 0 0 0 0 0 0 0 0 0 0 0 0 0 0 0 0 0 0 0 0 0 0 0 0 0 0 0 0 0 0 0 0 0 0 0 0 0 0 0 0 0 0 0 0 0 0 0 0 0 0 0 0 0 0 0 0 0 0 0 0 0 0 0 0 0 0 0 0 0 0 0 0 0 0 0 0 0 0 0 0 0 0 0 0 0 0 0 0 0 0 0 0 0 0 0 0 0 0 0 0 0 0 0 0 0 0 0 0 0 0 0 0 0 0 0 0 0 0 0
0 0 0 0 0 0 0 94 94 94 94 94 93 93 93 94 94 0 0 0 0 0 0 0 0 55 55 0 54 54 54 54 54 55 55 55 55 55 55 55 97 97 96 96 97 97 55 55 55 55 55 55 55 54 54 54 99 99 98 98 98 97 97 99 98 98 99 99 99 100 101 101 101 102 102 103 103 103 103 105 107 107 98 54 54 54 54 54 54 55 101 102 106 106 106 106 102 54 54 54 54 54 54 54 103 103 106 103 103 102 102 103 106 106 106 106 107 107 107 107 107 106 106 106 106 107 107 106 106 107 107 107 107 107 0 0 54 0 0 0 0 54 54 54 110 110 108 108 108 107 107 107 107 54 54 54 54 54 54 54 54 54 105 105 105 106 106 106 107 108 108 108 114 108 108 108 54 54 54 108 108 108 110 110 108 108 107 107 107 107 106 106 107 107 107 107 107 107 107 54 54 54 107 108 108 110 110 110 108 108 108 108 108 108 0 0 0 54 0 54 110 110 110 110 110 110 110 111 55 55 112 112 112 108 108 108 108 108 110 110 110 111 111 111 112 112 108 108 108 108 111 110 110 0 0 0 0 0 0 0 0 0 108 108 108 108 110 110 108 108 108 108 108 108 108 108 108 110 110 110 108 108 110 108 108 108 108 108 108 108 107 107 108 108 108 110 110 110 110 110 108 108 108 108 108 108 108 108 110 110 110 110 110 111 110 110 110 110 108 108 108 108 108 108 108 110 110 111 110 110 110 108 108 108 108 108 108 108 108 108 110 110 110 110 108 108 108 107 107 107 107 107 107 107 107 107 107 107 108 108 108 108 108 108 110 110 110 107 107 107 107 107 107 107 106 106 106 107 107 107 107 107 108 108 107 107 107 107 108 108 107 107 108 108 108 107 107 106 106 106 106 106 106 106 107 107 107 107 107 107 107 107 107 106 106 107 107 107 107 107 107 107 107 107 107 107 107 107 107 107 107 107 107 107 107 107 107 107 107 107 107 107 107 107 107 107 107 108 108 108 108 108 108 108 107 107 107 107 107 106 106 106 107 107 107 107 108 108 108 108 108 108 108 0 0 0 0 108 107 107 107 106 106 107 107 0 0 0 0 0 0 0 0 106 105 105 105 106 106 106 54 54 54 107 107 106 106 106 106 107 107 107 107 107 108 0 0 0 0 0 0 0 0 0 0 0 0 0 0 0 0 0 0 0 0 0 0 0 0 0 0 0 0 0 0 0 0 0 0 0 0 0 0 0 0 0 0 0 0 0 0 0 0 0 0 0 0 0 0 0 0 0 0 0 0 0 0 0 0 0 0 0 0 0 0 0 0 0 0 0 0 0 0 0 0 0 0 0 0 0 0 0 0 0 0 0 0 0 0 0 0 0 0 0 0 0 0 0 0 0 0 0 0 0 0 0 0 0 0 0 0 0 0 0 0 0 0 0 0 0
0 0 0 0 0 0 0 54 54 54 54 94 54 54 54 94 0 54 54 55 0 55 55 55 55 55 55 55 54 54 54 54 54 55 55 55 55 55 55 55 55 55 55 55 98 55 55 55 55 55 55 55 55 54 54 54 54 99 98 98 98 98 98 99 98 98 99 99 99 100 54 54 54 54 102 103 103 103 107 107 107 107 54 54 54 54 54 54 54 54 55 102 55 54 54 54 54 54 54 54 54 54 54 54 103 103 106 103 103 102 102 102 106 107 107 54 54 54 107 107 106 106 106 106 107 107 107 106 55 55 55 55 54 54 54 54 54 0 54 54 54 54 54 54 54 54 54 54 54 54 54 54 54 54 54 54 54 54 54 54 54 54 54 103 103 105 106 106 107 108 112 115 115 54 54 54 54 54 54 54 108 108 108 110 108 108 107 107 107 106 106 106 107 107 107 107 107 108 108 54 54 54 54 54 110 110 110 110 108 108 108 108 0 0 0 0 54 54 54 54 54 54 54 54 54 54 54 54 54 54 54 54 54 108 108 108 108 108 110 110 110 111 111 111 111 108 108 108 108 108 108 54 54 0 0 0 0 0 0 0 0 0 0 54 111 111 111 111 108 108 108 108 108 108 108 108 108 108 108 108 108 108 108 108 108 108 108 108 108 108 107 107 108 108 108 110 108 108 110 108 108 108 108 108 108 108 108 108 110 110 110 108 108 110 110 110 110 0 54 54 108 108 108 108 108 110 110 111 110 108 108 108 108 108 108 108 108 108 108 108 110 111 111 111 55 55 108 108 107 107 107 107 107 107 107 107 107 107 110 110 110 52 52 52 54 54 0 0 107 107 107 106 106 105 105 105 106 106 106 107 107 107 107 107 107 107 107 107 107 108 108 107 107 108 108 107 107 106 106 106 107 107 107 107 107 107 107 107 107 107 107 106 106 106 106 107 107 107 106 106 107 107 107 107 107 107 107 108 108 107 107 107 107 107 107 107 107 107 107 107 107 107 107 107 107 107 107 108 108 108 108 108 108 108 107 107 107 107 107 106 106 106 107 107 107 107 108 108 108 108 108 108 108 108 0 0 0 0 107 106 106 106 106 106 107 107 0 0 0 0 0 0 0 0 105 105 106 107 107 54 54 54 54 107 107 106 106 106 106 107 107 107 107 107 108 0 0 0 0 0 0 0 0 0 0 0 0 0 0 0 0 0 0 0 0 0 0 0 0 0 0 0 0 0 0 0 0 0 0 0 0 0 0 0 0 0 0 0 0 0 0 0 0 0 0 0 0 0 0 49 49 0 0 0 0 0 0 0 0 0 0 0 0 0 0 0 0 0 0 0 0 0 0 0 0 0 0 0 0 0 0 0 0 0 0 0 0 0 0 0 0 0 0 0 0 0 0 0 0 0 0 0 0 0 0 0 0 0 0 0 0 0 0 0 0 0 0 0 0 0
0 0 0 0 0 0 0 54 54 54 54 54 54 54 54 55 54 54 54 55 55 55 55 55 55 55 55 55 55 54 54 54 54 55 55 55 55 55 55 55 55 55 55 55 55 55 55 55 55 55 55 55 55 54 54 54 54 54 54 98 98 98 98 99 99 99 99 100 100 54 54 54 54 54 54 54 54 54 54 54 54 54 54 54 54 54 54 54 54 54 55 55 55 54 54 54 54 54 54 54 54 54 54 54 54 103 106 105 103 102 102 102 102 54 54 54 54 54 53 53 106 106 106 106 107 107 107 54 54 54 54 54 54 54 54 54 54 0 54 54 54 54 54 54 54 54 54 54 54 54 54 54 54 54 54 54 54 54 54 54 54 54 54 54 54 54 106 106 54 54 54 54 54 54 54 54 54 54 54 54 54 54 54 54 108 108 108 108 54 107 107 107 108 108 54 54 54 54 54 54 54 54 54 54 54 110 54 54 54 54 54 54 54 0 0 0 54 54 54 54 54 54 54 54 54 54 54 54 54 54 54 54 54 54 54 54 54 54 54 54 54 54 54 54 54 54 54 54 54 54 54 54 54 54 54 54 54 54 54 54 54 54 54 54 54 112 112 112 108 108 108 108 108 108 108 108 108 108 108 108 108 108 108 108 108 108 108 108 108 107 107 107 107 107 107 108 108 108 110 108 108 108 108 108 108 108 108 110 110 110 110 108 108 110 110 110 0 54 54 54 54 54 107 107 107 108 110 111 110 108 108 108 107 107 107 107 108 108 108 108 54 54 111 54 54 54 108 107 107 106 106 106 106 106 106 106 107 53 53 53 52 52 0 0 0 0 0 54 107 107 106 106 106 105 105 105 105 106 106 107 107 107 107 107 107 107 107 107 107 108 108 107 107 108 108 107 107 105 105 106 107 106 106 107 107 107 107 107 107 107 107 106 106 106 106 106 106 106 106 106 106 106 106 107 107 107 107 108 108 107 107 107 107 107 107 107 107 107 107 107 107 107 107 107 107 107 107 108 108 108 108 108 108 108 107 107 107 107 107 106 106 106 106 107 107 107 107 107 108 108 108 55 55 55 0 0 0 0 0 101 101 105 105 106 102 102 0 0 0 0 0 0 0 0 107 106 106 106 107 54 54 54 54 107 107 106 106 106 107 107 107 107 107 107 107 0 0 0 0 0 0 0 0 0 0 0 0 0 0 0 0 0 0 0 0 0 0 0 0 0 0 0 0 0 0 0 0 0 0 0 0 0 0 0 0 0 0 0 0 0 0 0 0 0 0 0 0 0 50 49 49 49 50 50 0 0 0 0 0 0 0 0 0 0 0 0 0 0 0 0 0 0 0 0 0 0 0 0 0 0 0 0 0 0 0 0 0 0 0 0 0 0 0 0 0 0 0 0 0 0 0 0 0 0 0 0 0 0 0 0 0 0 0 0 0 0 0 0 0 0
0 0 0 0 0 0 0 54 54 54 54 54 54 55 55 55 54 54 54 55 55 55 55 55 55 55 55 55 55 54 54 54 55 55 55 55 55 55 55 55 55 55 55 55 55 55 55 55 55 55 54 54 55 54 54 54 54 54 54 54 54 54 54 54 54 99 101 100 100 54 54 54 54 54 54 54 54 54 54 54 54 54 54 54 54 54 54 54 54 55 55 55 55 54 54 55 54 54 54 54 54 54 54 54 54 54 54 54 54 54 54 54 54 54 54 54 54 54 53 53 54 54 54 54 54 54 54 54 54 54 54 54 54 54 54 54 54 54 54 54 54 54 54 54 54 54 54 54 54 54 54 54 54 54 54 54 54 54 54 54 54 54 54 54 54 54 54 54 54 54 54 54 54 54 54 54 54 54 54 54 54 54 54 54 54 54 54 54 54 54 54 54 54 54 54 54 54 54 54 54 54 54 54 54 54 54 54 54 54 54 54 54 54 54 54 54 54 54 54 54 54 54 54 54 54 54 54 54 54 54 54 54 54 54 54 54 54 54 54 54 54 54 54 54 54 54 54 54 54 54 54 54 54 54 54 54 54 54 54 54 54 54 54 54 54 54 53 53 53 53 53 53 54 54 54 54 54 111 108 108 108 108 108 108 108 110 108 108 108 107 107 107 107 107 107 108 110 110 110 108 108 108 108 108 108 108 108 111 111 108 108 108 108 110 110 110 0 54 54 54 54 54 54 54 107 108 110 111 110 110 110 108 107 107 107 107 107 108 54 54 54 54 54 54 54 54 54 54 54 106 106 106 106 106 106 106 107 53 52 52 52 52 53 0 0 54 54 54 54 54 54 54 53 53 53 53 53 53 53 53 53 107 107 108 108 108 108 111 111 111 111 111 111 53 53 105 105 105 105 106 107 106 106 107 107 107 107 107 107 107 107 106 106 106 106 106 106 106 106 106 106 106 106 107 54 54 107 108 108 108 108 108 108 108 107 107 107 107 107 107 107 107 107 107 107 107 107 108 108 108 108 108 108 108 107 107 107 107 107 106 105 105 106 105 105 107 107 107 107 108 108 55 55 55 55 0 0 0 0 99 99 101 101 105 101 100 100 0 0 0 0 0 0 0 107 107 106 106 53 53 53 54 53 53 53 53 53 107 107 107 107 107 107 107 107 0 0 0 0 0 0 0 0 0 0 0 0 0 0 0 0 0 0 0 0 0 0 0 0 0 0 0 0 0 0 0 0 0 0 0 0 0 0 0 0 0 0 0 0 0 0 0 0 0 0 0 0 50 50 49 49 49 50 50 0 0 0 0 0 0 0 0 0 0 0 0 0 0 0 0 0 0 0 0 0 0 0 0 0 0 0 0 0 0 0 0 0 0 0 0 0 0 0 0 0 0 0 0 0 0 0 0 0 0 0 0 0 0 0 0 0 0 0 0 0 0 0 0 0 0
0 0 0 0 0 0 0 54 54 54 54 54 54 55 55 55 55 55 55 55 55 55 55 55 55 55 55 55 55 54 54 55 55 55 55 55 55 55 55 55 55 55 55 55 55 55 55 55 55 55 54 54 55 54 54 54 54 54 54 54 54 54 54 54 54 54 101 100 100 54 54 54 54 54 54 54 54 54 54 54 54 54 54 54 54 54 54 54 54 54 54 54 54 54 54 54 54 54 54 54 54 54 54 54 54 54 54 54 54 54 54 54 54 54 54 54 54 54 53 53 54 54 54 54 54 54 54 54 54 54 54 54 54 54 54 54 54 54 54 54 54 54 54 54 54 54 54 54 54 54 54 54 54 54 54 54 54 54 54 54 54 54 54 54 54 54 54 54 54 54 54 54 54 54 54 54 54 54 54 54 54 54 54 54 54 54 54 54 54 54 54 54 54 54 54 54 54 54 54 54 54 54 54 54 54 54 54 54 54 54 54 54 54 54 54 54 54 54 54 54 54 54 54 54 54 54 54 54 54 54 54 54 54 54 54 54 54 54 54 54 54 54 54 54 54 54 54 54 54 54 54 54 54 54 54 54 54 54 54 54 54 54 54 54 54 54 54 53 53 53 53 53 54 54 54 54 54 54 54 54 108 108 53 53 53 53 53 53 54 54 54 54 54 54 54 54 54 110 110 108 108 108 108 108 108 108 108 54 108 108 108 108 108 108 54 54 0 54 54 54 54 54 54 54 54 54 111 111 111 54 54 54 53 53 53 53 107 107 54 54 54 54 54 54 54 54 54 54 54 102 102 106 54 53 53 53 53 53 52 52 52 53 53 53 0 0 54 54 54 54 54 54 53 53 53 53 53 53 53 53 53 53 53 53 53 53 53 111 114 53 53 53 53 53 0 0 0 0 0 0 0 0 0 108 108 108 107 107 107 107 107 106 106 106 106 106 106 106 106 106 106 106 107 107 54 54 54 108 108 108 108 108 108 108 107 107 106 106 107 107 107 107 107 107 107 107 107 107 107 52 52 52 108 108 108 108 107 107 107 106 105 105 106 105 105 107 107 107 107 54 54 54 55 55 0 0 0 0 0 98 98 101 101 103 101 100 100 0 0 0 0 0 0 107 107 107 106 106 53 53 53 54 53 53 53 53 53 107 107 107 107 107 107 107 107 0 0 0 52 52 0 0 0 0 0 0 0 0 0 0 0 0 0 0 0 0 0 0 0 0 0 0 0 0 0 0 0 0 0 0 0 0 0 0 0 0 0 0 0 51 51 52 52 0 0 51 51 50 50 50 50 50 50 50 0 0 0 0 0 0 0 0 0 0 0 0 0 0 0 0 0 0 0 0 0 0 0 0 0 0 0 0 0 0 0 0 0 0 0 0 0 0 0 0 0 0 0 0 0 0 0 0 0 0 0 0 0 0 0 0 0 0 0 0 0 0 0 0 0 0
0 0 0 0 0 0 0 54 54 54 54 54 54 55 55 55 55 55 55 55 55 55 55 55 55 55 55 55 55 54 54 55 55 55 55 55 55 55 55 55 55 55 55 55 55 55 55 55 55 55 55 55 54 54 54 54 54 54 54 54 54 54 54 54 54 54 101 99 54 54 54 54 54 54 54 54 54 54 54 54 54 54 54 54 54 54 55 54 54 54 54 54 54 54 54 54 54 54 54 54 54 54 54 54 54 54 54 54 54 54 54 54 54 54 54 54 54 54 54 54 54 54 54 54 54 54 54 54 54 54 54 54 54 54 54 54 54 54 54 54 54 54 54 54 54 54 54 54 54 54 54 54 54 54 54 54 54 54 54 54 54 54 54 54 54 54 54 54 54 54 54 54 54 54 54 54 54 54 54 54 54 54 54 54 54 54 54 54 54 54 54 54 54 54 54 54 54 54 54 54 54 54 54 54 54 54 54 54 54 54 54 54 54 54 54 54 54 54 54 54 54 54 54 54 54 54 54 54 54 54 54 54 54 54 54 54 54 54 54 54 54 54 54 54 54 54 54 54 54 54 54 54 54 54 54 54 54 54 54 54 54 54 54 54 54 54 54 53 53 53 53 54 54 54 54 54 54 54 54 54 54 53 53 53 53 53 53 53 54 54 54 54 54 54 54 54 54 54 110 110 108 108 108 54 54 54 54 54 54 54 54 54 54 54 54 54 54 54 54 54 54 54 54 54 54 54 54 54 54 54 54 54 54 53 53 53 54 54 54 54 54 54 54 54 54 53 53 54 54 54 54 54 54 53 53 53 53 53 53 53 53 53 53 53 53 53 53 53 53 53 54 54 53 53 53 53 53 53 53 53 53 53 53 53 53 53 53 53 53 53 53 53 53 53 53 54 54 0 0 0 0 0 108 108 108 108 54 54 53 53 53 53 106 106 106 106 106 106 106 106 106 106 53 53 54 53 53 53 53 53 53 108 108 108 107 107 106 106 107 107 107 107 107 107 107 107 107 107 0 0 52 52 52 52 52 52 108 108 108 108 105 105 105 105 53 107 107 53 53 53 54 54 55 0 0 53 0 0 0 52 52 53 53 53 53 53 53 0 0 0 0 0 0 107 52 52 53 106 106 52 52 53 53 53 53 53 53 107 107 107 107 107 107 52 52 52 52 52 52 51 51 51 51 51 51 51 51 51 51 51 51 51 0 0 0 0 0 0 0 0 0 0 0 0 0 0 0 0 0 0 0 0 0 0 0 0 0 51 51 51 51 52 52 52 51 51 51 51 51 51 51 51 51 0 0 0 0 0 0 0 0 0 0 0 0 0 0 0 0 0 0 0 0 0 0 0 0 0 0 0 0 0 0 0 0 0 0 0 0 0 0 0 0 0 0 0 0 0 50 50 50 51 51 0 0 0 0 0 0 0 0 0 0 0 0 0 0 0 0 0
0 0 0 0 0 0 0 54 54 54 54 54 54 55 55 55 55 55 55 55 55 55 55 55 55 55 55 55 55 55 55 55 55 55 55 55 55 55 55 55 55 55 55 55 55 55 55 55 55 55 55 54 54 54 54 54 54 54 54 54 54 54 54 54 54 54 54 54 54 54 54 54 54 54 54 54 54 54 54 54 54 54 54 54 54 54 54 54 54 54 54 54 54 54 54 54 54 54 54 54 54 54 54 54 54 54 54 54 54 54 54 54 54 54 54 54 54 54 54 54 54 54 54 54 54 54 54 54 54 54 54 54 54 54 54 54 54 54 54 54 54 54 54 54 54 54 54 54 54 54 54 54 54 54 54 54 54 54 54 54 54 54 54 54 54 54 54 54 54 54 54 54 54 54 54 54 54 54 54 54 54 54 54 54 54 54 54 54 54 54 54 54 54 54 54 54 54 54 54 54 54 54 54 54 54 54 54 54 54 54 54 54 54 54 54 54 54 54 54 54 54 54 54 54 54 54 54 54 54 54 54 54 54 54 54 54 54 54 54 54 54 54 54 54 54 54 54 54 54 54 54 54 54 54 54 54 54 54 54 54 54 54 54 54 54 54 54 54 54 54 54 54 54 54 54 54 54 54 54 54 54 53 53 53 53 53 53 54 54 54 54 54 54 54 54 54 54 54 54 54 54 54 108 54 54 54 54 54 54 54 54 54 54 54 54 54 54 54 54 54 54 54 54 54 54 54 54 54 54 54 54 54 54 54 53 53 54 54 53 53 54 54 54 54 54 53 53 54 53 53 53 53 54 53 53 53 53 53 53 53 53 53 53 53 53 53 53 53 53 53 53 53 53 53 53 53 53 53 53 53 53 53 53 53 53 53 53 53 53 53 53 53 53 53 53 54 54 54 0 0 0 0 53 53 53 53 53 53 53 53 53 53 53 107 107 106 106 106 106 106 53 53 53 53 53 53 53 53 53 53 53 53 53 53 52 52 52 52 107 107 107 107 107 107 107 53 53 53 0 0 52 52 52 52 52 52 52 51 51 52 52 52 52 52 53 53 53 53 53 53 53 53 54 53 53 53 53 53 0 52 52 53 53 53 53 53 53 0 0 52 52 53 53 53 52 52 52 52 52 52 52 52 52 52 53 53 53 107 107 107 107 52 52 52 52 52 52 52 52 51 51 51 51 51 51 51 51 51 51 51 51 51 51 51 51 51 52 52 52 0 51 51 51 51 51 51 51 0 0 0 0 0 0 0 51 51 51 51 51 51 51 52 52 52 51 51 51 51 51 51 51 51 51 51 51 0 0 0 0 0 0 0 0 0 0 0 0 0 0 0 0 0 0 0 0 0 0 0 0 0 0 0 0 0 0 0 0 0 0 0 0 0 0 0 0 0 0 0 50 50 50 51 51 0 0 0 0 0 0 0 0 0 51 51 51 0 0 0 0 0
0 0 0 0 0 0 0 54 54 54 54 54 54 54 55 55 55 55 55 55 55 55 55 55 55 55 55 55 55 55 55 55 55 55 55 55 55 55 55 55 55 55 55 55 55 55 55 55 55 55 55 54 54 54 54 54 54 54 54 54 54 54 54 54 54 54 54 53 53 53 53 54 54 54 54 54 54 54 54 54 54 54 54 54 54 54 54 54 54 54 54 54 54 54 54 54 54 54 54 54 54 54 54 54 54 54 54 54 54 54 54 54 54 54 54 54 54 54 54 54 54 54 54 54 54 54 54 54 54 54 54 54 54 54 54 54 54 54 54 54 54 54 54 54 54 54 54 54 54 54 54 54 54 54 54 54 54 54 54 54 54 54 54 54 54 54 54 54 54 54 54 54 54 54 54 54 54 54 54 54 54 54 54 54 54 54 54 54 54 54 54 54 54 54 54 54 54 54 54 54 54 54 54 54 54 54 54 54 54 54 54 54 54 54 54 54 54 54 54 54 54 54 54 54 54 54 54 54 54 54 54 54 54 54 54 54 54 54 54 54 54 54 54 54 54 54 54 54 54 54 54 54 54 54 54 54 54 54 54 54 54 54 54 54 54 54 54 54 54 54 54 54 54 54 54 54 54 54 54 54 54 54 53 53 54 54 54 54 54 54 54 54 54 54 54 54 54 54 54 54 54 54 54 54 54 54 54 54 54 54 54 54 54 54 54 54 54 54 54 54 54 54 54 54 54 54 54 54 54 54 54 54 54 54 54 54 54 54 53 53 53 53 54 54 54 53 53 53 53 53 53 53 54 54 53 53 53 53 53 53 53 53 53 53 53 53 53 53 53 53 53 53 53 53 53 53 53 53 53 53 53 53 53 53 53 53 53 53 53 53 53 53 53 53 53 54 54 54 0 0 0 0 53 53 53 53 53 53 53 53 53 53 53 53 53 53 53 53 54 53 53 53 53 53 53 53 53 53 53 53 53 53 53 52 52 52 52 52 52 52 53 107 107 107 107 53 53 53 52 52 52 52 52 52 52 52 52 51 51 52 52 52 52 52 52 52 52 52 52 52 53 53 53 53 53 53 53 53 53 53 53 53 53 53 53 53 53 53 53 52 52 52 53 53 52 52 52 52 52 52 52 52 52 52 52 52 52 52 52 52 52 52 52 52 52 52 52 52 52 51 51 51 51 51 51 51 51 51 51 51 51 51 51 51 51 51 52 52 52 51 51 51 51 51 51 51 51 0 0 0 0 0 0 51 51 51 51 51 51 51 51 52 52 52 52 52 51 51 51 51 51 51 51 51 51 52 0 0 0 0 0 0 0 0 0 0 0 0 0 0 0 0 0 0 0 0 0 0 0 0 0 0 0 0 0 0 0 0 0 0 0 0 0 0 51 51 51 51 50 50 51 51 51 0 0 0 0 0 0 0 0 0 51 51 51 51 51 51 0 0
0 0 0 0 0 0 0 54 54 54 54 54 54 54 55 55 55 55 55 55 55 55 55 55 55 55 55 55 55 55 55 55 55 55 55 55 55 55 55 54 54 54 54 55 55 55 55 55 55 55 55 54 54 54 54 54 54 54 54 54 54 54 54 54 54 54 54 53 53 53 53 54 54 54 54 54 54 54 54 54 54 54 54 54 54 54 54 54 54 54 54 54 54 54 54 54 54 54 54 54 54 54 54 54 54 54 54 54 54 54 54 54 54 54 54 54 54 54 54 54 54 54 54 54 54 54 54 54 54 54 54 54 54 54 54 54 54 54 54 54 54 54 54 54 54 54 54 54 54 54 54 54 54 54 54 54 54 54 54 54 54 54 54 54 54 54 54 54 54 54 54 54 54 54 54 54 54 54 54 54 54 54 54 54 54 54 54 54 54 54 54 54 54 54 54 54 54 54 54 54 54 54 54 54 54 54 54 54 54 54 54 54 54 54 54 54 54 54 54 54 54 54 54 54 54 54 54 54 54 54 54 54 54 54 54 54 54 54 54 54 54 54 54 54 54 54 54 54 54 54 54 54 54 54 54 54 54 54 54 54 54 54 54 54 54 54 54 54 54 54 54 54 54 54 54 54 54 54 54 54 54 54 54 54 54 54 54 54 54 54 54 54 54 54 54 54 54 54 54 54 54 54 54 54 54 54 54 54 54 54 54 54 54 54 54 54 54 54 54 54 54 54 54 54 54 54 54 54 54 54 54 54 53 53 53 53 53 53 53 53 53 53 53 54 54 53 53 53 53 53 53 53 54 54 54 53 53 53 53 53 53 53 53 53 53 53 53 53 53 53 53 53 53 53 53 53 53 53 53 53 53 53 53 53 53 53 53 53 53 53 53 53 53 53 53 53 53 53 0 0 0 0 0 53 53 53 53 53 53 53 53 53 53 53 53 53 53 53 54 53 53 53 53 53 53 53 53 53 53 53 53 53 53 52 52 52 52 52 52 52 53 53 53 53 53 53 53 53 52 52 52 52 52 52 52 52 52 52 52 52 52 52 52 52 52 52 52 52 52 52 53 53 53 53 53 53 53 53 53 53 53 53 53 53 53 53 53 53 53 52 52 52 52 52 52 52 52 52 52 52 52 52 52 52 52 52 52 52 52 52 52 52 52 52 52 52 52 52 52 52 52 51 51 52 51 51 51 51 51 51 51 51 51 51 51 51 52 52 52 51 51 51 51 51 51 51 51 0 0 0 0 0 51 51 51 51 51 51 51 51 51 52 52 52 52 52 52 51 51 51 51 51 51 51 51 51 0 0 0 0 0 0 0 0 0 0 0 0 0 0 0 0 0 0 0 51 51 51 51 51 0 0 0 0 0 0 0 0 0 0 0 0 51 51 51 51 51 51 50 50 51 51 51 51 0 0 0 0 0 0 51 51 51 51 51 51 51 51 51 0
0 0 0 0 0 0 0 54 54 54 54 54 54 54 55 55 55 55 55 55 55 55 55 55 55 55 55 55 55 55 55 55 55 55 55 55 55 55 55 54 54 54 54 55 55 55 55 55 55 55 55 54 54 54 54 54 54 54 54 54 54 54 54 54 54 54 54 53 53 53 53 53 53 54 54 54 54 54 54 54 54 54 54 54 54 54 54 54 54 54 54 54 54 54 54 54 54 54 54 54 54 54 54 54 54 54 54 54 54 54 54 54 54 54 54 54 54 54 54 54 54 54 54 54 54 54 54 54 54 54 54 54 54 54 54 54 54 54 54 54 54 54 54 54 54 54 54 54 54 54 54 54 54 54 54 54 54 54 54 54 54 54 54 54 54 54 54 54 54 54 54 54 54 54 54 54 54 54 54 54 54 54 54 54 54 54 54 54 54 54 54 54 54 54 54 54 54 54 54 54 54 54 54 54 54 54 54 54 54 54 54 54 54 54 54 54 54 54 54 54 54 54 54 54 54 54 54 54 54 54 54 54 54 54 54 54 54 54 54 54 54 54 54 54 54 54 54 54 54 54 54 54 54 54 54 54 54 54 54 54 54 54 54 54 54 54 54 54 54 54 54 54 54 54 54 54 54 54 54 54 54 54 54 54 54 54 54 54 54 54 54 54 54 54 54 54 54 54 54 54 54 54 54 54 54 54 54 54 54 54 54 54 54 54 54 54 54 54 54 54 54 54 54 54 54 54 54 54 54 54 54 54 53 53 53 53 53 53 53 53 53 53 53 53 53 53 53 53 53 53 53 53 53 53 53 53 53 53 53 53 53 53 53 53 53 53 53 53 53 53 53 53 53 53 53 53 53 53 53 53 53 53 53 53 53 53 53 53 53 53 53 53 53 53 53 53 53 53 53 53 53 53 53 53 53 53 53 53 53 53 53 53 53 53 53 53 53 53 53 53 53 53 53 53 53 53 53 53 53 53 53 53 53 53 52 52 52 52 52 52 53 53 53 53 53 53 53 53 52 52 52 52 52 52 52 52 52 52 52 52 52 52 52 52 52 52 52 52 52 52 53 53 53 52 52 52 52 52 52 52 52 52 53 53 52 52 53 52 52 52 52 52 52 52 52 52 52 52 52 52 52 52 52 52 52 52 52 52 52 52 52 52 52 52 52 52 52 52 52 52 52 51 51 52 52 51 51 51 51 51 51 51 51 51 51 52 52 52 52 52 51 51 51 51 51 51 51 52 52 0 0 52 51 51 51 51 51 51 51 51 51 51 51 51 52 51 51 51 51 51 51 51 51 51 51 51 51 51 0 0 0 0 0 0 0 0 0 0 0 0 0 0 51 51 51 51 51 51 51 51 51 51 51 51 51 0 0 0 0 0 0 0 51 51 51 51 51 51 51 51 51 51 51 51 51 51 0 0 0 0 51 51 51 51 51 51 51 51 51 52
0 0 0 0 0 0 0 54 54 54 54 54 54 54 55 55 55 55 55 55 55 55 55 55 55 55 55 55 55 55 55 55 55 55 55 55 55 55 55 54 54 54 54 54 54 54 54 54 55 55 55 54 54 54 55 55 54 54 54 54 54 54 54 54 54 54 54 53 53 53 53 53 53 54 54 54 54 54 54 54 54 54 54 54 54 54 54 54 54 54 54 54 54 54 54 54 54 54 54 54 54 54 54 54 54 54 54 54 54 54 54 54 54 54 54 54 54 54 54 54 54 54 54 54 54 54 54 54 54 54 54 54 54 54 54 54 54 54 54 54 54 54 54 54 54 54 54 54 54 54 54 54 54 54 54 54 54 54 54 54 54 54 54 54 54 54 54 54 54 54 54 54 54 54 54 54 54 54 54 54 54 54 54 54 54 54 54 54 54 54 54 54 54 54 54 54 54 54 54 54 54 54 54 54 54 54 54 54 54 54 54 54 54 54 54 54 54 54 54 54 54 54 54 54 54 54 54 54 54 54 54 54 54 54 54 54 54 54 54 54 54 54 54 54 54 54 54 54 54 54 54 54 54 54 54 54 54 54 54 54 54 54 54 54 54 54 54 54 54 54 54 54 54 54 54 54 54 54 54 54 54 54 54 54 54 54 54 54 54 54 54 54 54 54 54 54 54 54 54 54 54 54 54 54 54 54 54 54 54 54 54 54 54 54 54 54 54 54 54 54 54 54 54 54 54 54 54 54 54 54 54 54 54 54 53 53 53 53 53 53 53 53 53 53 53 53 53 53 53 53 53 53 53 53 53 53 53 53 53 53 53 53 53 53 53 53 53 53 53 53 53 53 53 53 53 53 53 53 53 53 53 53 53 53 53 53 53 53 53 53 53 53 53 53 53 53 53 53 53 53 53 53 53 53 53 53 53 53 53 53 53 53 53 53 53 53 53 53 53 53 53 53 53 53 53 53 53 53 53 53 53 53 53 53 52 52 52 52 52 52 53 53 53 53 53 53 53 53 52 52 52 52 52 52 52 52 52 52 52 52 52 52 52 52 52 52 52 52 52 52 53 53 53 52 52 52 52 52 52 52 52 52 53 53 52 52 53 52 52 52 52 52 52 52 52 52 52 52 52 52 52 52 52 52 52 52 52 52 52 52 52 52 52 52 52 52 52 52 52 52 52 52 52 52 52 51 51 51 51 51 51 51 51 51 51 52 52 52 52 52 52 51 51 51 51 51 51 51 52 52 52 52 52 51 51 51 51 51 51 51 51 51 51 51 52 51 51 51 51 51 51 51 51 51 51 51 51 51 51 51 51 0 51 51 51 52 51 51 51 51 51 51 51 51 51 51 51 51 51 51 51 51 51 51 51 51 0 0 0 0 0 0 51 51 51 51 51 51 51 51 51 51 51 51 51 51 51 51 51 51 51 51 51 51 51 51 51 52 52 52
0 0 0 0 0 0 0 54 54 54 54 54 54 54 55 55 55 55 55 55 55 55 55 55 55 55 55 55 55 55 55 55 55 55 55 55 55 55 55 55 55 55 55 54 54 54 54 54 54 54 54 54 54 54 55 54 54 54 54 54 54 54 54 54 54 54 54 53 53 54 54 54 54 54 54 54 54 54 54 54 54 54 54 54 54 54 54 54 54 54 54 54 54 54 54 54 54 54 54 54 54 54 54 54 54 54 54 54 54 54 54 54 54 54 54 54 54 54 54 54 54 54 54 54 54 54 54 54 54 54 54 54 54 54 54 54 54 54 54 54 54 54 54 54 54 54 54 54 54 54 54 54 54 54 54 54 54 54 54 54 54 54 54 54 54 54 54 54 54 54 54 54 54 54 54 54 54 54 54 54 54 54 54 54 54 54 54 54 54 54 54 54 54 54 54 54 54 54 54 54 54 54 54 54 54 54 54 54 54 54 54 54 54 54 54 54 54 54 54 54 54 54 54 54 54 54 54 54 54 54 54 54 54 54 54 54 54 54 54 54 54 54 54 54 54 54 54 54 54 54 54 54 54 54 54 54 54 54 54 54 54 54 54 54 54 54 54 54 54 54 54 54 54 54 54 54 54 54 54 54 54 54 54 54 54 54 54 54 54 54 54 54 54 54 54 54 54 54 54 54 54 54 54 54 54 54 54 54 54 54 54 54 54 54 54 54 54 54 54 54 54 54 54 54 54 54 54 54 54 54 54 54 54 54 53 53 53 53 53 53 53 53 53 53 53 53 53 53 53 53 53 53 53 53 53 53 53 53 53 53 53 53 53 53 53 53 53 53 53 53 53 53 53 53 53 53 53 53 53 53 53 53 53 53 53 53 53 53 53 53 53 53 53 53 53 53 53 53 53 53 53 53 53 53 53 53 53 53 53 53 53 53 53 53 53 53 53 53 53 53 53 53 53 53 53 53 53 53 53 53 53 53 53 53 53 52 52 52 52 52 53 53 53 53 53 53 53 53 52 52 52 52 52 52 53 53 53 53 52 52 52 52 52 52 52 52 52 52 52 52 53 53 53 52 52 52 52 52 52 52 52 52 53 53 53 53 53 52 52 52 52 52 52 52 52 52 52 52 52 52 52 52 52 52 53 53 52 52 52 52 52 52 52 52 52 52 52 52 52 52 52 52 52 52 52 52 52 52 52 51 51 51 51 51 52 52 52 52 52 52 52 52 52 51 51 51 51 51 52 52 52 52 52 52 51 51 51 51 51 51 51 51 51 51 52 52 51 51 51 51 51 51 51 51 51 51 51 51 51 51 51 51 51 51 51 51 51 51 51 51 51 51 51 51 51 51 51 51 51 51 51 51 51 51 51 51 0 0 0 0 0 0 51 51 51 51 51 51 51 51 51 51 51 51 51 51 50 50 51 51 51 51 51 51 51 52 52 52 52 52
0 0 0 0 0 0 0 54 54 54 54 54 54 54 55 55 55 55 55 55 55 55 55 55 55 55 55 55 55 55 55 55 55 55 55 55 55 55 55 55 55 55 55 54 54 54 54 54 54 54 54 54 54 54 55 54 54 55 55 55 54 54 54 54 54 54 54 54 54 54 54 54 54 54 54 54 54 54 54 54 54 54 54 54 54 54 54 54 54 54 54 54 54 54 54 54 54 54 54 54 54 54 54 54 54 54 54 54 54 54 54 54 54 54 54 54 54 54 54 54 54 54 54 54 54 54 54 54 54 54 54 54 54 54 54 54 54 54 54 54 54 54 54 54 54 54 54 54 54 54 54 54 54 54 54 54 54 54 54 54 54 54 54 54 54 54 54 54 54 54 54 54 54 54 54 54 54 54 54 54 54 54 54 54 54 54 54 54 55 54 54 54 54 54 54 54 54 54 54 54 54 54 54 54 54 54 54 54 54 54 54 54 54 54 54 54 54 54 54 54 54 54 54 54 54 54 54 54 54 54 54 54 54 54 54 54 54 54 54 54 54 54 54 54 54 54 54 54 54 54 54 54 54 54 54 54 54 54 54 54 54 54 54 54 54 54 54 54 54 54 54 54 54 54 54 54 54 54 54 54 54 54 54 54 54 54 54 54 54 54 54 54 54 54 54 54 54 54 54 54 54 54 54 54 54 54 54 54 54 54 54 54 54 54 54 54 54 54 54 54 54 54 54 54 54 54 54 54 54 54 54 54 54 54 54 54 54 54 53 53 53 53 53 54 53 53 53 53 53 53 53 53 53 53 53 53 53 53 53 53 53 53 53 53 53 53 53 53 53 53 53 53 53 53 53 53 53 53 53 53 53 53 53 53 53 53 53 53 53 53 53 53 53 53 53 53 53 53 53 53 53 53 53 53 53 53 53 53 53 53 53 53 53 53 53 53 53 53 53 53 53 53 53 53 53 53 53 53 53 53 53 53 53 53 53 52 52 52 52 52 53 53 53 53 53 53 53 53 52 52 52 52 52 52 53 53 53 53 53 52 52 52 52 52 52 52 52 52 52 52 53 53 53 52 52 52 52 52 52 52 53 53 53 53 53 53 52 52 52 52 52 52 52 52 52 52 52 52 52 52 52 52 52 52 53 53 53 52 52 52 52 52 52 52 52 52 52 52 52 52 52 52 52 52 52 52 52 52 52 52 51 51 51 52 52 52 52 52 52 52 52 52 52 51 51 51 51 52 52 52 52 52 51 51 51 51 51 51 51 51 51 51 51 51 52 52 51 51 52 51 51 51 51 51 51 51 51 51 51 51 51 51 51 51 51 51 51 51 51 51 51 51 51 51 51 51 51 51 51 51 51 51 51 51 51 51 51 51 51 51 51 51 51 51 51 51 51 51 51 51 51 51 51 51 51 51 50 50 51 51 51 51 51 51 51 52 52 52 52 52
0 0 0 0 0 0 0 54 54 55 55 54 54 55 55 55 55 55 55 55 55 55 55 55 55 55 55 55 55 55 55 55 55 55 55 55 55 55 55 55 55 55 55 55 55 54 54 54 55 55 54 54 54 54 55 54 54 55 55 55 55 54 54 54 54 54 54 54 54 54 54 54 54 54 54 54 54 54 54 54 54 54 54 54 54 54 54 54 54 54 54 54 54 54 54 54 54 54 54 54 54 54 54 54 54 54 54 54 54 54 54 54 54 54 54 54 54 54 54 54 54 54 54 54 54 54 54 54 54 54 54 54 54 54 54 54 54 54 54 54 54 54 54 54 54 54 54 54 54 54 54 54 54 54 54 54 54 54 54 54 54 54 54 54 54 54 54 54 54 54 54 54 54 54 54 54 54 54 54 54 54 54 54 54 54 54 54 55 55 54 54 54 54 54 54 54 54 54 54 54 54 54 54 54 54 54 54 54 54 54 54 54 54 54 54 54 54 54 54 54 54 54 54 54 54 54 54 54 54 54 54 54 54 54 54 54 54 54 54 54 54 54 54 54 54 54 54 54 54 54 54 54 54 54 54 54 54 54 54 54 54 54 54 54 54 54 54 54 54 54 54 54 54 54 54 54 54 54 54 54 54 54 54 54 54 54 54 54 54 54 54 54 54 54 54 54 54 54 54 54 54 54 54 54 54 54 54 54 54 54 54 54 54 54 54 54 54 54 54 54 54 54 54 54 54 54 54 54 54 54 54 54 54 54 54 54 54 54 53 53 53 53 54 54 53 53 53 53 53 53 53 53 53 53 53 53 53 53 53 53 53 53 53 53 53 53 53 53 53 53 53 53 53 53 53 53 53 53 53 53 53 53 53 53 53 53 53 53 53 53 53 53 53 53 53 53 53 53 53 53 53 53 53 53 53 53 53 53 53 53 53 53 53 53 53 53 53 53 53 53 53 53 53 53 53 53 53 53 53 53 53 53 53 53 53 52 52 52 52 52 53 53 53 53 53 53 53 53 52 52 52 53 53 53 53 53 53 53 53 52 52 52 52 52 52 52 52 52 52 53 53 53 53 52 52 52 52 52 52 52 53 53 53 53 53 53 52 52 52 52 52 52 52 52 52 52 52 52 52 52 52 52 52 52 53 53 53 53 52 52 52 52 52 52 52 52 52 52 52 52 52 52 52 52 52 52 52 52 52 52 51 51 51 52 52 52 52 52 52 52 52 52 52 51 51 52 52 52 52 52 52 52 51 51 51 51 51 51 51 51 51 51 51 51 52 52 51 51 52 51 51 51 51 51 51 51 51 51 51 51 51 51 51 51 51 51 51 51 51 51 51 51 51 51 51 51 51 51 51 51 51 51 51 51 51 51 51 51 51 51 51 51 51 51 51 51 51 51 51 51 51 51 51 51 51 51 51 51 51 51 51 51 51 51 51 52 52 52 52 52
0 0 0 0 0 0 0 54 54 55 55 55 55 55 55 55 55 55 55 55 55 55 55 55 55 55 55 55 55 55 55 55 55 55 55 55 55 55 55 55 55 55 55 55 55 54 54 54 54 54 54 54 54 54 54 54 54 55 55 55 55 54 54 54 54 54 54 54 54 54 54 54 54 54 54 54 54 54 54 54 54 54 54 54 54 54 54 54 54 54 54 54 54 54 54 54 54 54 54 54 54 54 54 54 54 54 54 54 54 54 54 54 54 54 54 54 54 54 54 54 54 54 54 54 54 54 54 54 54 54 54 54 54 54 54 54 54 55 55 54 54 54 54 54 54 54 54 54 54 54 54 54 54 54 54 54 54 54 54 54 54 54 54 54 54 54 54 54 54 54 54 54 54 54 54 54 54 54 54 54 54 54 54 54 54 54 54 55 55 55 54 54 54 54 54 54 54 54 54 54 54 54 54 54 54 54 54 54 54 54 54 54 54 54 54 54 54 54 54 54 54 54 54 54 54 54 54 54 54 54 54 54 54 54 54 54 54 54 54 54 54 54 54 54 54 54 54 54 54 54 54 54 54 54 54 54 54 54 54 54 54 54 54 54 54 54 54 54 54 54 54 54 54 54 54 54 54 54 54 54 54 54 54 54 54 54 54 54 54 54 54 54 54 54 54 54 54 54 54 54 54 54 54 54 54 54 54 54 54 54 54 54 54 54 54 54 54 54 54 54 54 54 54 54 54 54 54 54 54 54 54 54 54 54 54 54 54 53 53 53 53 54 54 54 54 54 54 53 53 53 53 53 53 53 53 53 53 53 53 53 53 53 53 53 53 53 53 53 53 53 53 53 53 53 53 53 53 53 53 53 53 53 53 53 53 53 53 53 53 53 53 53 53 53 53 53 53 53 53 53 53 53 53 53 53 53 53 53 53 53 53 53 53 53 53 53 53 53 53 53 53 53 53 53 53 53 53 53 53 53 53 53 53 53 53 52 52 52 53 53 53 53 53 53 53 53 53 53 53 53 53 53 53 53 53 53 53 53 53 53 53 53 52 52 52 52 52 53 53 53 53 53 53 52 52 52 52 52 52 53 53 53 53 53 53 53 52 52 52 52 52 52 52 52 52 52 52 52 52 52 52 52 52 52 53 53 53 53 52 52 52 52 52 52 52 52 52 52 52 52 52 52 52 52 52 52 52 52 52 52 52 52 52 52 52 52 52 52 52 52 52 52 52 52 52 52 52 52 52 52 52 52 51 51 51 51 51 51 51 51 51 51 51 52 52 52 52 52 52 51 51 51 51 51 51 51 51 51 51 51 51 51 51 51 51 51 51 51 51 51 51 51 51 51 51 51 51 51 51 51 51 51 51 51 51 51 51 51 51 51 51 51 51 51 51 51 51 51 51 51 51 51 51 51 51 51 51 51 51 51 51 51 51 52 52 52 52 52 52 53
0 0 0 0 0 0 0 54 54 55 55 55 55 55 55 55 55 55 55 55 55 55 55 55 55 55 55 55 55 55 55 55 55 55 55 55 55 55 55 55 55 55 55 55 55 54 54 54 54 54 54 54 54 54 54 54 54 55 55 55 55 54 54 54 54 54 54 55 55 54 54 54 54 54 54 54 54 54 54 54 54 54 54 54 54 54 54 54 54 54 54 54 54 54 54 54 54 54 54 54 54 54 54 54 54 54 54 54 54 54 54 54 54 54 54 54 54 54 54 54 54 54 54 54 54 54 54 54 54 54 54 54 54 54 54 54 54 54 55 54 54 54 54 54 54 54 54 54 54 54 54 54 54 54 54 54 54 54 54 54 54 54 54 54 54 54 54 54 54 54 54 54 54 54 54 54 54 54 54 54 54 54 54 54 54 54 54 54 55 55 55 54 54 54 54 54 54 54 54 54 54 54 54 54 54 54 54 54 54 54 54 54 54 54 54 54 54 54 54 54 54 54 54 54 54 54 54 54 54 54 54 54 54 54 54 54 54 54 54 54 54 54 54 54 54 54 54 54 54 54 54 54 54 54 54 54 54 54 54 54 54 54 54 54 54 54 54 54 54 54 54 54 54 54 54 54 54 54 54 54 54 54 54 54 54 54 54 54 54 54 54 54 54 54 54 54 54 54 54 54 54 54 54 54 54 54 54 54 54 54 54 54 54 54 54 54 54 54 54 54 54 54 54 54 54 54 54 54 54 54 54 54 54 54 54 54 54 53 53 53 53 53 53 53 53 54 53 53 53 53 53 53 53 53 53 53 53 53 53 53 53 53 53 53 53 53 53 53 53 53 53 53 53 53 53 53 53 53 53 53 53 53 53 53 53 53 53 53 53 53 53 53 53 53 53 53 53 53 53 53 53 53 53 53 53 53 53 53 53 53 53 53 53 53 53 53 53 53 53 53 53 53 53 53 53 53 53 53 53 53 53 53 53 53 53 53 53 53 53 53 53 53 53 53 53 53 53 53 53 53 53 53 53 53 53 53 53 53 53 53 53 53 53 53 53 53 53 53 53 53 53 53 53 52 52 52 52 52 52 53 53 53 53 53 53 53 53 52 52 52 52 52 52 52 52 52 52 52 52 52 52 52 52 52 52 52 52 52 52 52 52 52 52 52 52 52 52 52 52 52 52 52 52 52 52 52 52 52 52 52 52 52 52 52 52 52 52 52 52 52 52 52 52 52 52 52 52 52 52 52 52 52 51 51 51 51 51 51 51 51 51 52 52 52 52 52 52 52 52 52 52 51 51 51 51 51 51 51 51 51 51 51 51 51 51 51 51 51 51 51 51 51 51 51 51 51 51 51 51 51 51 51 51 51 51 51 51 51 51 51 51 51 51 51 51 51 51 51 51 51 51 51 51 51 51 51 51 51 51 51 51 51 52 52 52 52 52 52 52 52
0 0 0 0 0 0 0 54 54 55 55 55 55 55 55 55 55 55 55 55 55 55 55 55 55 55 55 55 55 55 55 55 55 55 55 55 55 55 55 55 55 55 55 55 55 55 55 54 54 54 54 54 54 54 54 54 54 55 55 55 55 55 54 54 55 55 55 55 55 54 54 54 54 54 54 54 54 54 54 54 54 54 54 54 54 54 54 54 54 54 54 54 54 54 54 54 54 54 54 54 54 54 54 54 54 54 54 54 54 54 54 54 54 54 54 54 54 54 54 54 54 54 54 54 54 54 54 54 54 54 54 54 54 54 54 54 54 54 54 54 54 54 54 54 54 54 54 54 54 54 54 54 54 54 54 54 54 54 54 54 54 54 54 54 54 54 54 54 54 54 54 54 54 54 54 54 54 54 54 54 54 54 54 54 54 54 54 54 55 55 55 54 54 54 54 54 54 54 54 54 54 54 54 54 54 54 54 54 54 54 54 54 54 54 54 54 54 54 54 54 54 54 54 54 54 54 54 54 54 54 54 54 54 54 54 54 54 54 54 54 54 54 54 54 54 54 54 54 54 54 54 54 54 54 54 54 54 54 54 54 54 54 54 54 54 54 54 54 54 54 54 54 54 54 54 54 54 54 54 54 54 54 54 54 54 54 54 54 54 54 54 54 54 54 54 54 54 54 54 54 54 54 54 54 54 54 54 54 54 54 54 54 54 54 54 54 54 54 54 54 54 54 54 54 54 54 54 54 54 54 54 54 54 54 54 54 54 53 53 53 53 53 53 53 53 53 53 53 53 53 53 53 53 53 53 53 53 53 53 53 53 53 53 53 53 53 53 53 53 53 53 53 53 53 53 53 53 53 53 53 53 53 53 53 53 53 53 53 53 53 53 53 53 53 53 53 53 53 53 53 53 53 53 53 53 53 53 53 53 53 53 53 53 53 53 53 53 53 53 53 53 53 53 53 53 53 53 53 53 53 53 53 53 53 53 53 53 53 53 53 53 53 53 53 53 53 53 53 53 53 53 53 53 53 53 53 53 53 53 53 53 53 53 53 53 53 53 53 53 53 53 53 53 52 52 52 52 52 52 52 52 53 53 53 53 53 53 52 52 52 52 52 52 52 52 52 52 52 52 52 52 52 52 52 52 52 52 52 52 52 52 52 52 52 52 52 52 52 52 52 52 52 52 52 52 52 52 52 52 52 52 52 52 52 52 52 52 52 52 52 52 52 52 52 52 52 52 52 52 52 52 52 51 51 51 51 51 51 51 51 51 52 52 52 52 52 52 52 52 52 52 51 51 51 51 51 51 51 51 51 51 51 51 52 51 51 51 51 51 51 51 51 51 51 51 51 51 51 51 51 51 51 51 51 51 51 51 51 51 51 51 51 51 51 51 51 51 51 51 51 51 51 51 51 51 51 51 51 51 51 51 51 52 52 52 52 52 52 52 52
0 0 0 0 0 0 0 55 55 55 55 55 55 55 55 55 55 55 55 55 55 55 55 55 55 55 55 55 55 55 55 55 55 55 55 55 55 55 55 55 55 55 55 55 55 55 55 54 54 54 54 54 54 54 54 55 55 55 55 55 55 55 55 55 55 54 54 55 55 54 54 54 54 54 54 54 54 54 54 54 54 54 54 54 54 54 54 54 54 54 54 54 54 54 54 54 54 54 54 54 54 54 54 54 54 54 54 54 54 54 54 54 54 54 54 54 54 54 54 54 54 54 54 54 54 54 54 54 54 54 54 54 54 54 54 54 54 54 54 54 54 54 54 54 54 54 54 54 54 54 54 54 54 54 54 54 54 54 54 54 54 54 54 54 54 54 54 54 54 54 54 54 54 54 54 54 54 54 54 54 54 54 54 54 54 54 54 54 54 54 55 54 54 54 54 54 54 54 54 54 54 54 54 54 54 54 54 54 54 54 54 54 54 54 54 54 54 54 54 54 54 54 54 54 54 54 54 54 54 54 54 54 54 54 54 54 54 54 54 54 54 54 54 54 54 54 54 54 54 54 54 54 54 54 54 54 54 54 54 54 54 54 54 54 54 54 54 54 54 54 54 54 54 54 54 54 54 54 54 54 54 54 54 54 54 54 54 54 54 54 54 54 54 54 54 54 54 54 54 54 54 54 54 54 54 54 54 54 54 54 54 54 54 54 54 54 54 54 54 53 53 54 54 54 54 54 54 54 54 54 54 54 54 54 54 54 54 53 53 53 53 53 53 53 53 53 53 53 53 53 53 53 53 53 53 53 53 53 53 53 53 53 53 53 53 53 53 53 53 53 53 53 53 53 53 53 53 53 53 53 53 53 53 53 53 53 53 53 53 53 53 53 53 53 53 53 53 53 53 53 53 53 53 53 53 53 53 53 53 53 53 53 53 53 53 53 53 53 53 53 53 53 53 53 53 53 53 53 53 53 53 53 53 53 53 53 53 53 53 53 53 53 53 53 53 53 53 53 53 53 53 53 53 53 53 53 53 53 53 53 53 53 53 53 53 53 53 53 53 53 53 53 53 52 52 52 52 52 52 52 52 53 53 53 53 53 53 53 52 52 52 52 52 52 52 52 52 52 52 52 52 52 52 52 52 52 52 52 52 52 52 52 52 52 52 52 52 52 52 52 52 52 52 52 52 52 52 52 52 52 52 52 52 52 52 52 52 52 52 52 52 52 52 52 52 52 52 52 52 52 52 52 52 52 51 51 51 51 51 51 51 52 52 52 52 52 52 52 52 52 52 51 51 51 51 51 51 51 51 51 51 51 51 52 51 51 51 51 51 51 51 51 51 51 51 51 51 51 51 51 51 51 51 51 51 51 51 51 51 51 51 51 51 51 51 51 51 51 51 51 51 51 51 51 51 51 51 51 51 51 52 52 52 52 52 52 52 52 52 52
0 0 0 0 0 0 0 55 55 55 55 55 55 55 55 55 55 55 55 55 55 55 55 55 55 55 55 55 55 55 55 55 55 55 55 55 55 55 55 55 55 55 55 55 55 55 55 54 54 54 54 54 54 54 54 55 55 55 55 55 55 55 55 55 54 54 54 54 54 54 54 54 54 54 54 54 54 54 54 54 54 54 54 54 54 54 54 54 54 54 54 54 54 54 54 54 54 54 54 54 54 54 54 54 54 54 54 54 54 54 54 54 54 54 54 54 54 54 54 54 54 54 54 54 54 54 54 54 54 54 54 54 54 54 54 54 54 54 54 54 54 54 54 54 54 54 54 54 54 54 54 54 54 54 54 54 54 54 54 54 54 54 54 54 54 54 54 54 54 54 54 54 54 54 54 54 54 54 54 54 54 54 54 54 54 54 54 54 54 54 55 54 54 54 54 54 54 54 54 54 54 54 54 54 54 54 54 54 54 54 54 54 54 54 54 54 54 54 54 54 54 54 54 54 54 54 54 54 54 54 54 54 54 54 54 54 54 54 54 54 54 54 54 54 54 54 54 54 54 54 54 54 54 54 54 54 54 54 54 54 54 54 54 54 54 54 54 54 54 54 54 54 54 54 54 54 54 54 54 54 54 54 54 54 54 54 54 54 54 54 54 54 54 54 54 54 54 54 54 54 54 54 54 54 54 54 54 54 54 54 54 54 54 54 54 54 54 54 54 53 53 54 54 54 54 54 54 54 54 54 54 54 54 54 54 54 54 53 53 53 53 53 53 53 53 53 53 53 53 53 53 53 53 53 53 53 53 53 53 53 53 53 53 53 53 53 53 53 53 53 53 53 53 53 53 53 53 53 53 53 54 53 53 53 53 53 53 53 53 53 53 53 53 53 53 53 53 53 53 53 53 53 53 53 53 53 53 53 53 53 53 53 53 53 53 53 53 53 53 53 53 53 53 53 53 53 53 53 53 53 53 53 53 53 53 53 53 53 53 53 53 53 53 53 53 53 53 53 53 53 53 53 53 53 53 53 53 53 53 53 53 53 53 53 53 53 53 53 53 53 53 53 53 52 52 52 52 52 52 52 52 53 53 53 53 53 53 53 53 52 52 52 52 52 52 52 52 52 52 52 52 52 52 52 52 52 52 52 52 52 52 52 52 52 52 52 52 52 52 52 52 52 52 52 52 52 52 53 52 52 52 52 52 52 51 51 52 52 52 52 52 52 52 52 52 52 52 52 52 52 52 52 52 52 51 51 51 51 51 51 51 52 52 52 52 52 52 52 52 51 51 52 52 52 51 51 51 51 51 51 51 51 52 52 51 51 51 51 51 51 51 51 51 51 51 51 51 51 51 51 51 51 51 51 51 51 51 51 51 51 51 51 51 51 51 51 51 51 51 51 51 51 51 51 51 51 51 51 51 51 51 51 51 51 51 52 52 51 51 51
0 0 0 0 0 0 0 55 55 55 55 55 55 55 55 55 55 55 55 55 55 55 55 55 55 55 55 55 55 55 55 55 55 55 55 55 55 55 55 55 55 55 55 55 55 55 55 55 54 54 54 54 54 54 55 55 55 55 55 55 55 55 55 55 54 54 54 54 54 54 54 54 54 54 54 54 54 54 54 54 54 54 54 54 54 54 54 54 54 54 54 54 54 54 54 54 54 54 54 54 54 54 54 54 54 54 54 54 54 54 54 54 54 54 54 54 54 54 54 54 54 54 54 54 54 54 54 54 54 54 54 54 54 54 54 54 54 54 54 54 54 54 54 54 54 54 54 54 54 54 54 54 54 54 54 54 54 54 54 54 54 54 54 54 54 54 54 54 54 54 54 54 54 54 54 54 54 54 54 54 54 54 54 54 54 54 54 54 54 54 54 54 54 54 54 54 54 54 54 54 54 54 54 54 54 54 54 54 54 54 54 54 54 54 54 54 54 54 54 54 54 54 54 54 54 54 54 54 54 54 54 54 54 54 54 54 54 54 54 54 54 54 54 54 54 54 54 54 54 54 54 54 54 54 54 54 54 54 54 54 54 54 54 54 54 54 54 54 54 54 54 54 54 54 54 54 54 54 54 54 54 54 54 54 54 54 54 54 54 54 54 54 54 54 54 54 54 54 54 54 54 54 54 54 54 54 54 54 54 54 54 54 54 54 54 54 54 54 54 54 54 54 54 54 54 54 54 54 54 54 54 54 54 54 54 54 53 53 53 53 53 53 53 53 53 53 53 53 53 53 53 53 53 53 53 53 53 53 53 53 53 53 53 53 53 53 53 53 53 53 53 53 53 53 53 53 53 53 53 53 54 53 53 53 53 53 53 53 53 53 53 53 53 53 53 53 53 53 53 53 53 53 53 53 53 53 53 53 53 53 53 53 53 53 53 53 53 53 53 53 53 53 53 53 53 53 53 53 53 53 53 53 53 53 53 53 53 53 53 53 53 53 53 53 53 53 53 53 53 53 53 53 53 53 53 53 53 53 53 53 53 53 53 53 53 53 53 53 53 53 53 53 53 52 52 52 52 52 52 52 52 53 53 53 53 53 53 53 53 52 52 52 52 52 52 52 52 52 53 52 52 52 52 52 52 52 52 52 52 52 52 52 52 52 52 52 52 52 52 52 52 52 52 52 52 52 52 53 52 52 52 52 52 52 51 51 52 52 52 52 52 52 52 52 52 52 52 52 52 52 52 52 52 52 52 52 51 51 52 52 52 52 52 52 52 52 52 52 51 51 51 51 51 51 51 51 51 52 51 51 52 52 52 52 52 52 52 52 51 51 51 51 51 51 51 51 51 51 51 51 51 51 51 51 51 51 51 51 51 51 51 51 51 51 51 51 51 51 51 51 51 51 51 51 51 51 51 51 51 51 51 51 51 51 51 51 51 51 51 51
0 0 0 0 0 0 0 55 55 55 55 55 55 55 55 55 55 55 55 55 55 55 55 55 55 55 55 55 55 55 55 55 55 55 55 55 55 55 55 55 55 55 55 55 55 55 55 55 55 55 55 55 55 55 55 55 55 55 55 55 55 55 55 55 54 54 54 54 54 54 54 54 54 54 54 54 54 54 54 54 54 54 54 54 54 54 54 54 54 54 54 54 54 54 54 54 54 54 54 54 54 54 54 54 54 54 54 54 54 54 54 54 54 54 54 54 54 54 54 54 54 54 54 54 54 54 54 54 54 54 54 54 54 54 54 54 54 54 54 54 54 54 54 54 54 54 54 54 54 54 54 54 54 54 54 54 54 54 54 54 54 54 54 54 54 54 54 54 54 54 54 54 54 54 54 54 54 54 54 54 54 54 54 54 54 54 54 54 54 54 54 54 54 54 54 54 55 55 54 54 54 54 54 54 54 54 54 54 54 54 54 54 54 54 54 54 54 54 54 54 54 54 54 54 54 54 54 54 54 54 54 54 54 54 54 54 54 54 54 54 54 54 54 54 54 54 54 54 54 54 54 54 54 54 54 54 54 54 54 54 54 54 54 54 54 54 54 54 54 54 54 54 54 54 54 54 54 54 54 54 54 54 54 54 54 54 54 54 54 54 54 54 54 54 54 54 54 54 54 54 54 54 54 54 54 54 54 54 54 54 54 54 54 54 54 54 54 54 54 54 54 54 54 54 54 54 54 54 54 54 54 54 54 54 54 54 53 53 53 53 53 53 53 53 53 53 53 53 53 53 53 53 53 53 53 53 53 53 53 53 53 53 53 53 53 53 53 53 53 53 53 53 53 53 53 53 53 53 53 54 54 53 53 53 53 53 53 53 53 53 53 53 53 53 53 53 53 53 53 53 53 53 53 53 53 53 53 53 53 53 53 53 53 53 53 53 53 53 53 53 53 53 53 53 53 53 53 53 53 53 53 53 53 53 53 53 53 53 53 53 53 53 53 53 53 53 53 53 53 53 53 53 53 53 53 53 53 53 53 53 53 53 53 52 52 53 53 53 53 53 53 53 53 53 52 52 52 52 52 52 52 53 53 53 53 53 53 53 53 53 52 52 52 52 52 52 52 53 53 52 52 52 52 52 52 52 52 52 52 52 52 52 52 52 52 52 52 52 52 52 52 52 52 52 52 52 53 53 52 52 52 52 52 52 51 51 52 52 52 52 52 52 52 52 52 52 52 52 52 52 52 52 52 52 52 52 51 51 52 52 52 52 52 52 52 52 52 52 51 51 51 51 51 51 51 51 51 51 51 51 52 52 52 52 52 52 52 52 51 51 51 51 51 51 51 51 51 51 51 51 51 51 51 51 51 51 51 51 51 51 51 51 51 51 51 51 51 51 51 51 51 51 51 51 51 51 51 51 51 51 51 51 51 51 51 51 51 51 51 51
0 0 0 0 0 0 0 55 55 55 55 55 55 55 55 55 55 55 55 55 55 55 55 55 55 55 55 55 55 55 55 55 55 55 55 55 55 55 55 55 55 55 55 55 55 55 55 55 55 55 55 55 55 55 55 55 55 55 55 55 55 55 55 54 54 54 54 54 54 54 54 54 54 54 54 54 54 54 54 54 54 54 54 54 54 54 54 54 54 54 54 54 54 54 54 54 54 54 54 54 54 54 54 54 54 54 54 54 54 54 54 54 54 54 54 54 54 54 54 54 54 54 54 54 54 54 54 54 54 54 54 54 54 54 54 54 54 54 54 54 54 54 54 54 54 54 54 54 54 54 54 54 54 54 54 54 54 54 54 54 54 54 54 54 54 54 54 54 54 54 54 54 54 54 54 54 54 54 54 54 54 54 54 54 54 54 54 54 54 54 55 55 55 54 54 54 55 55 54 54 54 54 54 54 54 54 54 54 54 54 54 54 54 54 54 54 54 54 54 54 54 54 54 54 54 54 54 54 54 54 54 54 54 54 54 54 54 54 54 54 54 54 54 54 54 54 54 54 54 54 54 54 54 54 54 54 54 54 54 54 54 54 54 54 54 54 54 54 54 54 54 54 54 54 54 54 54 54 54 54 54 54 54 54 54 54 54 54 54 54 54 54 54 54 54 54 54 54 54 54 54 54 54 54 54 54 54 54 54 54 54 54 54 54 54 54 54 54 54 54 54 54 54 54 54 54 54 54 54 54 54 54 54 54 54 54 53 53 53 53 53 53 53 53 53 53 53 53 53 53 53 53 53 53 53 53 53 53 53 53 53 53 53 53 53 53 53 53 53 53 53 53 53 53 53 53 54 54 54 54 54 54 54 53 53 53 53 53 53 53 53 53 53 53 53 53 53 53 53 53 53 53 53 53 53 53 53 53 53 53 53 53 53 53 53 53 53 53 53 53 53 53 53 53 53 53 53 53 53 53 53 53 53 53 53 53 53 53 53 53 53 53 53 53 53 53 53 53 53 53 53 53 53 53 53 53 53 53 53 53 53 53 52 52 52 53 53 53 53 53 53 53 53 53 52 52 52 52 52 52 52 53 53 53 53 53 53 53 53 53 52 52 52 52 52 52 52 52 53 52 52 52 52 52 52 52 52 52 52 52 52 52 52 52 52 52 52 53 53 52 52 52 52 52 52 52 52 52 52 52 52 52 52 52 52 52 52 52 52 52 52 52 52 52 52 52 52 52 52 52 52 52 52 52 52 52 52 52 52 52 52 52 52 52 52 52 52 52 51 51 51 51 51 51 51 51 51 51 51 51 52 52 52 52 52 52 52 52 51 51 51 51 51 51 51 51 51 51 51 51 51 51 51 51 51 51 51 51 51 51 51 51 51 51 51 51 51 51 51 51 51 51 51 51 51 51 51 51 51 51 51 51 51 51 51 51 51 51 51 51
0 0 0 0 0 0 0 55 55 55 55 55 55 55 55 55 55 55 55 55 55 55 55 55 55 55 55 55 55 55 55 55 55 55 55 55 55 55 55 55 55 55 55 55 55 55 55 55 55 55 55 55 55 55 55 55 55 55 55 55 55 55 55 54 54 54 54 54 54 54 54 54 54 54 54 54 54 54 54 54 54 54 54 54 54 54 54 54 54 54 54 54 54 54 54 54 54 54 54 54 54 54 54 54 54 54 54 54 54 54 54 54 54 54 54 54 54 54 54 54 54 54 54 54 54 54 54 54 54 54 54 54 54 54 54 54 54 54 54 54 54 54 54 54 54 54 54 54 54 54 54 54 54 54 54 54 54 54 54 54 54 54 54 54 54 54 54 54 54 54 54 54 54 54 54 54 54 54 54 54 54 54 54 54 54 54 54 54 54 54 55 55 55 54 54 54 54 54 54 54 54 54 54 54 54 54 54 54 54 54 54 54 54 54 54 54 53 53 54 54 54 54 54 54 54 54 54 54 54 54 54 54 54 54 54 54 54 54 54 54 54 54 54 54 54 54 54 54 54 54 54 54 54 54 54 54 54 54 54 54 54 54 54 54 54 54 54 54 54 54 54 54 54 54 54 54 54 54 54 54 54 54 54 54 54 54 54 54 54 54 54 54 54 54 54 54 54 54 54 54 54 54 54 54 54 54 54 54 54 54 54 54 54 54 54 54 54 54 54 54 54 54 54 54 54 54 54 54 54 54 54 54 54 54 54 54 53 53 53 53 53 53 53 53 53 53 53 53 53 53 53 53 53 53 54 54 54 53 53 53 53 53 53 53 53 53 53 53 53 53 53 53 53 53 53 54 54 54 54 54 54 54 54 53 53 53 53 53 53 53 53 53 53 53 53 53 53 53 53 53 53 53 53 53 53 53 53 53 53 53 53 53 53 53 53 53 53 53 53 53 53 53 53 53 53 53 53 53 53 53 53 53 53 53 53 53 53 53 53 53 53 53 53 53 53 53 53 53 53 53 53 53 53 53 53 53 53 53 53 53 53 53 52 52 52 53 53 53 53 53 53 53 53 53 52 52 52 52 52 52 52 53 53 53 53 53 53 53 53 53 52 52 52 52 52 52 52 52 53 52 52 52 52 52 52 52 52 52 52 52 52 52 52 52 52 53 53 53 53 53 53 53 53 53 52 52 52 52 52 52 52 52 52 52 52 52 52 52 52 52 52 52 52 52 52 52 52 52 52 52 52 52 52 52 52 52 52 52 52 52 52 52 52 52 52 52 52 52 51 51 51 51 51 51 51 51 51 51 51 51 51 51 52 52 52 52 52 51 51 51 51 51 51 51 51 51 51 51 51 51 51 51 51 51 51 51 51 51 51 51 51 51 51 51 51 51 51 51 51 51 51 51 51 51 51 51 51 51 51 51 51 51 51 51 51 51 51 51 51 51
0 0 0 0 0 0 0 55 55 55 55 55 55 55 55 55 55 55 55 55 55 55 55 55 55 55 55 55 55 55 55 55 55 55 55 55 55 55 55 55 55 55 55 55 55 55 55 55 55 55 55 55 54 54 55 55 55 55 55 55 55 55 55 54 54 54 54 54 54 54 54 54 54 54 54 54 54 54 54 54 54 54 54 54 54 54 54 54 54 54 54 54 54 54 54 54 54 54 54 54 54 54 54 54 54 54 54 54 54 54 54 54 54 54 54 54 54 54 54 54 54 54 54 54 54 54 54 54 54 54 54 54 54 54 54 54 54 54 54 54 54 54 54 54 54 54 54 54 54 54 54 54 54 54 54 54 54 54 54 54 54 54 54 54 54 54 54 54 54 54 54 54 54 54 54 54 54 54 54 54 54 54 54 54 54 54 54 54 54 54 55 54 54 54 54 54 54 54 54 54 54 54 54 54 54 54 54 54 54 54 54 54 54 54 54 54 53 53 54 54 54 54 54 54 54 54 54 54 54 54 54 54 54 54 54 54 54 54 54 54 54 54 54 54 54 54 54 54 54 54 54 54 54 54 54 54 54 54 54 54 54 54 54 54 54 54 54 54 54 54 54 54 54 54 54 54 54 54 54 54 54 54 54 54 54 54 54 54 54 54 54 54 54 54 54 54 54 54 54 54 54 54 54 54 54 54 54 54 54 54 54 54 54 54 54 54 54 54 54 54 54 54 54 54 54 54 54 54 54 54 54 54 54 54 54 54 54 53 53 53 53 53 53 53 53 53 53 53 53 53 53 53 53 53 54 54 54 54 54 53 53 53 53 53 53 53 53 53 53 53 53 53 53 53 53 54 54 54 54 54 54 54 54 53 53 53 53 53 53 53 53 53 53 53 53 53 53 53 53 53 53 53 53 53 53 53 53 53 53 53 53 53 53 53 53 53 53 53 53 53 53 53 53 53 53 53 53 53 53 53 53 53 53 53 53 53 53 53 53 53 53 53 53 53 53 53 53 53 53 53 53 53 53 53 53 53 53 53 53 52 52 52 52 52 52 53 53 53 53 53 53 53 53 53 53 53 52 52 52 52 52 53 53 53 53 53 53 53 53 53 52 52 52 52 52 52 52 52 53 52 52 53 53 53 53 52 52 52 52 52 52 52 53 53 53 53 53 53 53 53 53 53 53 53 53 53 52 52 52 52 52 52 52 52 52 52 52 52 52 52 52 52 52 52 52 52 52 52 52 52 52 52 52 52 52 52 52 52 52 52 52 52 52 52 52 52 52 52 52 51 51 51 51 51 51 51 51 51 51 51 51 51 51 51 51 52 51 51 51 51 51 51 51 51 51 51 51 51 51 51 51 51 51 51 51 51 51 51 51 51 51 51 51 51 51 51 51 51 51 51 51 51 51 51 51 51 51 51 51 51 51 51 51 51 51 51 51 51 51 51
0 0 0 0 0 0 0 55 55 55 55 55 55 55 55 55 55 55 55 55 55 55 55 55 55 55 55 55 55 55 55 55 55 55 55 55 55 55 55 55 55 55 55 55 55 55 55 55 55 55 55 55 54 54 54 55 55 55 55 55 55 55 55 54 54 54 54 54 54 54 54 54 54 54 54 54 54 54 54 54 54 54 54 54 54 54 54 54 54 54 54 54 54 54 54 54 54 54 54 54 54 54 54 54 54 54 54 54 54 54 54 54 54 54 54 54 54 54 54 54 54 54 54 54 54 54 54 54 54 54 54 54 54 54 54 54 54 54 54 54 54 54 54 54 54 54 54 54 54 54 54 54 54 54 54 54 54 54 54 54 54 54 54 54 54 54 54 54 54 54 54 54 54 54 54 54 54 54 54 54 54 54 54 54 54 54 54 54 54 54 54 54 54 54 54 54 54 54 54 54 54 54 54 54 54 54 54 54 54 54 54 54 54 54 54 54 54 54 54 54 54 54 54 54 54 54 54 54 54 54 54 54 54 54 54 54 54 54 54 54 54 54 54 54 54 54 54 54 54 54 54 54 54 54 54 54 54 54 54 54 54 54 54 54 54 54 54 54 54 54 54 54 54 54 54 54 54 54 54 54 54 54 54 54 54 54 54 54 54 54 54 54 54 54 54 54 54 54 54 54 54 54 54 54 54 54 54 54 54 54 54 54 54 54 54 54 54 54 54 54 54 54 54 54 54 54 54 54 54 54 54 54 54 54 54 54 54 53 53 53 53 53 53 53 53 53 53 53 53 53 53 53 53 54 54 54 54 54 54 53 53 53 53 53 53 53 53 53 53 53 53 53 53 53 54 54 54 54 54 54 54 54 54 53 53 53 53 53 53 53 53 53 53 53 53 53 53 53 53 53 53 53 53 53 53 53 53 53 53 53 53 53 53 53 53 53 53 53 53 53 53 53 53 53 53 53 53 53 53 53 53 53 53 53 53 53 53 53 53 53 53 53 53 53 53 53 53 53 53 53 53 53 53 53 53 53 53 53 53 52 52 52 52 52 52 53 53 53 53 53 53 53 53 53 53 53 53 53 53 53 53 53 53 53 53 53 53 53 53 53 52 52 52 52 52 52 52 52 53 53 53 53 53 53 53 53 53 53 53 52 52 53 53 53 53 53 53 53 53 53 53 53 53 53 53 53 52 52 52 52 52 52 52 52 52 52 52 52 52 52 52 52 52 52 52 52 52 52 52 52 52 52 52 52 52 52 52 52 52 52 52 52 52 52 52 52 52 52 52 51 51 51 51 51 51 51 51 51 51 51 51 51 51 51 51 51 51 51 51 51 51 51 51 51 51 51 51 51 51 51 51 51 51 51 51 51 51 51 51 51 51 51 51 51 51 51 51 51 51 51 51 51 51 51 51 51 51 51 51 51 51 51 51 51 51 51 51 51 51 51
0 0 0 0 0 0 0 55 55 55 55 55 55 55 55 55 55 55 55 55 55 55 55 55 55 55 55 55 55 55 55 55 55 55 55 55 55 55 55 55 55 55 55 55 55 55 55 55 55 55 55 55 54 54 54 55 55 55 55 55 55 55 55 54 54 54 54 54 54 54 54 54 54 54 54 54 54 54 54 54 54 54 54 54 54 54 54 54 54 54 54 54 54 54 54 54 54 54 54 54 54 54 54 54 54 54 54 54 54 54 54 54 54 54 54 54 54 54 54 54 54 54 54 54 54 54 54 54 54 54 54 54 54 54 54 54 54 54 54 54 54 54 54 54 54 54 54 54 54 54 54 54 54 54 54 54 54 54 54 54 54 54 54 54 54 54 54 54 54 54 54 54 54 54 54 54 54 54 54 54 54 54 54 54 54 54 54 54 54 54 54 54 54 54 54 54 54 54 54 54 54 54 54 54 54 54 54 54 54 54 54 54 54 54 54 54 54 54 54 54 54 54 54 54 54 54 54 54 54 54 54 54 54 54 54 54 54 54 54 54 54 54 54 54 54 54 54 54 54 54 54 54 54 54 54 54 54 54 54 54 54 54 54 54 54 54 54 54 54 54 54 54 54 54 54 54 54 54 54 54 54 54 54 54 54 54 54 54 54 54 54 54 54 54 54 54 54 54 54 54 54 54 54 54 54 54 54 54 54 54 54 54 54 54 54 54 54 54 54 54 54 54 54 54 54 54 54 54 54 54 54 54 54 54 54 54 54 54 53 53 53 54 53 53 53 53 53 53 53 53 53 53 53 54 54 54 54 54 54 53 53 53 53 53 53 53 53 53 53 53 53 53 53 53 54 54 54 54 54 54 54 54 54 53 53 53 53 53 53 53 53 53 53 53 53 53 53 53 53 53 53 53 53 53 53 53 53 53 53 53 53 53 53 53 53 53 53 53 53 53 53 53 53 53 53 53 53 53 53 53 53 53 53 53 53 53 53 53 53 53 53 53 53 53 53 53 53 53 53 53 53 53 53 53 53 53 53 53 53 52 52 52 52 52 52 53 53 53 53 53 53 53 53 53 53 53 53 53 53 53 53 53 53 53 53 53 53 53 53 53 53 53 52 52 52 52 52 52 53 53 53 53 53 53 53 53 53 53 53 53 53 53 53 53 53 53 53 53 53 53 53 53 53 53 52 52 52 52 52 52 52 52 52 52 52 52 52 52 52 52 52 52 52 52 52 52 52 52 52 52 52 52 52 52 52 52 52 52 52 52 52 52 52 52 52 52 52 52 52 52 52 51 51 51 51 51 51 51 51 51 51 51 51 51 51 51 51 51 51 51 51 51 51 51 51 51 51 51 51 51 51 51 51 51 51 51 51 51 51 51 51 51 51 51 51 51 51 51 51 51 51 51 51 51 51 51 51 51 51 51 51 51 51 51 51 51 51 51 51 51
0 0 0 0 0 0 0 55 55 55 55 55 55 55 55 55 55 55 55 55 55 55 55 55 55 55 55 55 55 55 55 55 55 55 55 55 55 55 55 55 55 55 55 55 55 55 55 54 54 54 54 54 54 54 54 54 55 55 55 55 55 55 55 54 54 54 54 54 54 54 54 54 54 54 54 54 54 54 54 54 54 54 54 54 54 54 54 54 54 54 54 54 54 54 54 54 54 54 54 54 54 54 54 54 54 54 54 54 54 54 54 54 54 54 54 54 54 54 54 54 54 54 54 54 54 54 54 54 54 54 54 54 54 54 54 54 54 54 54 54 54 54 54 54 54 54 54 54 54 54 54 54 54 54 54 54 54 54 54 54 54 54 54 54 54 54 54 54 54 54 54 54 54 54 54 54 54 54 54 54 54 54 54 54 54 54 54 54 54 54 54 54 54 54 54 54 54 54 54 54 54 54 54 54 54 54 54 54 54 54 54 54 54 54 54 54 54 54 54 54 54 54 54 54 54 54 54 54 54 54 54 54 54 54 54 54 54 54 54 54 54 54 54 54 54 54 54 54 54 54 54 54 54 54 54 54 54 54 54 54 54 54 54 54 54 54 54 54 54 54 54 54 54 54 54 54 54 54 54 54 54 54 54 54 54 54 54 54 54 54 54 54 54 54 54 54 54 54 54 54 54 54 54 54 54 54 54 54 54 54 54 54 54 54 54 54 54 54 54 54 54 54 54 54 53 53 53 54 54 54 54 54 54 54 54 54 54 54 54 53 53 54 53 53 53 53 53 53 53 53 53 53 53 54 54 54 54 54 54 54 54 53 53 53 53 53 53 53 54 54 54 54 54 54 54 54 54 54 54 54 54 54 54 53 53 53 53 53 53 53 53 53 53 53 53 53 53 53 53 53 53 53 53 53 53 53 53 53 53 53 53 53 53 53 53 53 53 53 53 53 53 53 53 53 53 53 53 53 53 53 53 53 53 53 53 53 53 53 53 53 53 53 53 53 53 53 53 53 53 53 53 53 53 53 53 53 53 53 53 52 52 52 52 52 52 53 53 53 53 53 53 53 53 53 53 53 53 53 53 53 53 53 53 53 53 53 53 53 53 53 53 53 52 52 52 52 53 53 53 53 53 53 53 53 53 53 53 53 53 53 53 53 53 53 53 53 53 53 53 53 53 53 53 53 52 52 52 52 52 52 52 52 52 52 52 52 52 52 52 52 52 52 52 52 52 52 52 52 52 52 52 52 52 52 52 52 52 52 52 52 52 52 52 52 52 52 52 52 52 52 52 51 51 51 51 51 51 51 51 51 51 51 51 51 51 51 51 51 51 51 51 51 51 51 51 51 51 51 51 51 51 51 51 51 51 51 51 51 51 51 51 51 51 51 51 51 51 51 51 51 51 51 51 51 51 51 51 51 51 51 51 51 51 51 51 51 51 51 51 51
0 0 0 0 0 0 0 55 55 55 55 55 55 55 55 55 55 55 55 55 55 55 55 55 55 55 55 55 55 55 55 55 55 55 55 55 55 55 55 55 55 55 55 55 55 55 55 54 54 54 54 54 54 54 54 54 55 55 55 55 55 55 54 54 54 54 54 54 54 54 54 54 54 54 54 54 54 54 54 54 54 54 54 54 54 54 54 54 54 54 54 54 54 54 54 54 54 54 54 54 54 54 54 54 54 54 54 54 54 54 54 54 54 54 54 54 54 54 54 54 54 54 54 54 54 54 54 54 54 54 54 54 54 54 54 54 54 54 54 54 54 54 54 54 54 54 54 54 54 54 54 54 54 54 54 54 54 54 54 54 54 54 54 54 54 54 54 54 54 54 54 54 54 54 54 54 54 54 54 54 54 54 54 54 54 54 54 54 54 54 54 54 54 54 54 54 54 54 54 54 54 54 54 54 54 54 54 54 54 54 54 54 54 54 54 54 54 54 54 54 54 54 54 54 54 54 54 54 54 54 54 54 54 54 54 54 54 54 54 54 54 54 54 54 54 54 54 54 54 54 54 54 54 54 54 54 54 54 54 54 54 54 54 54 54 54 54 54 54 54 54 54 54 54 54 54 54 54 54 54 54 54 54 54 54 54 54 54 54 54 54 54 54 54 54 54 54 54 54 54 54 54 54 54 54 54 54 54 54 54 54 54 54 54 54 54 54 54 54 54 54 54 54 54 53 53 53 54 54 54 54 54 54 54 54 54 54 54 54 54 54 54 53 53 53 53 53 53 53 53 53 54 54 54 54 54 54 54 54 54 54 53 53 53 53 53 53 53 54 54 54 54 54 54 54 54 54 54 54 54 54 54 54 53 53 53 53 53 53 53 53 53 53 53 53 53 53 53 53 53 53 53 53 53 53 53 53 53 53 53 53 53 53 53 53 53 53 53 53 53 53 53 53 53 53 53 53 53 53 53 53 53 53 53 53 53 53 53 53 53 53 53 53 53 53 53 53 53 53 53 53 53 53 53 53 53 53 53 53 52 52 52 52 52 52 53 53 53 53 53 53 53 53 53 53 53 53 53 53 53 53 53 53 53 53 53 53 53 53 53 53 53 52 52 52 53 53 53 53 53 53 53 53 53 53 53 53 53 53 53 53 53 53 53 53 53 53 53 53 52 52 53 53 52 52 52 52 52 52 52 52 52 52 52 52 52 52 52 52 52 52 52 52 52 52 52 52 52 52 52 52 52 52 52 52 52 52 52 52 52 52 52 52 52 52 52 52 52 52 52 52 51 51 51 51 51 51 51 51 51 51 51 51 51 51 51 51 51 51 51 51 51 51 51 51 51 51 51 51 51 51 51 51 51 51 51 51 51 51 51 51 51 51 51 51 51 51 51 51 51 51 51 51 51 51 51 51 51 51 51 51 51 51 51 51 51 51 51 51 51
0 0 0 0 0 0 0 55 55 55 55 55 55 55 55 55 55 55 55 55 55 55 55 55 55 55 55 55 55 55 55 54 54 55 55 55 55 55 55 55 55 55 55 55 55 55 54 54 54 54 54 54 54 54 54 54 55 55 55 55 55 55 54 54 54 54 54 54 54 54 54 54 54 54 54 54 54 54 54 54 54 54 54 54 54 54 54 54 54 54 54 54 54 54 54 54 54 54 54 54 54 54 54 54 54 54 54 54 54 54 54 54 54 54 54 54 54 54 54 54 54 54 54 54 54 54 54 54 54 54 54 54 54 54 54 54 54 54 54 54 54 54 54 54 54 54 54 54 54 54 54 54 54 54 54 54 54 54 54 54 54 54 54 54 54 54 54 54 54 54 54 54 54 54 54 54 54 54 54 54 54 54 54 54 54 54 54 54 54 54 54 54 54 54 54 54 54 54 54 54 54 54 54 54 54 54 54 54 54 54 54 54 54 54 54 54 54 54 54 54 54 54 54 54 54 54 54 54 54 54 54 54 54 54 54 54 54 54 54 54 54 54 54 54 55 54 54 54 54 54 54 54 54 54 54 54 54 54 54 54 54 54 54 54 54 54 54 54 54 54 54 54 54 54 54 54 54 54 54 54 54 54 54 54 54 54 54 54 54 54 54 54 54 54 54 54 54 54 54 54 54 54 54 54 54 54 54 54 54 54 54 54 54 54 54 54 54 54 54 54 54 54 54 54 54 53 53 54 54 54 54 54 54 54 54 54 54 54 54 54 54 54 54 53 53 53 53 53 54 53 53 54 54 54 54 54 54 54 54 54 54 53 53 53 53 54 54 54 54 54 54 54 54 54 54 54 54 54 54 54 54 54 54 54 54 54 53 53 53 53 53 53 53 53 53 53 53 53 53 53 53 53 53 53 53 53 53 53 53 53 53 53 53 53 53 53 53 53 53 53 53 53 53 53 53 53 53 53 53 53 53 53 53 53 53 53 53 53 53 53 53 53 53 53 53 53 53 53 53 53 53 53 53 53 53 53 53 53 53 53 53 53 53 52 52 53 53 53 53 53 53 53 53 53 53 53 53 53 53 53 53 53 53 53 53 53 53 53 53 53 53 53 52 52 52 53 53 53 53 53 53 53 53 53 53 53 53 53 53 53 53 53 53 53 53 53 53 53 52 52 52 52 52 52 52 52 52 52 52 52 52 52 52 52 52 52 52 52 52 52 52 52 52 52 52 52 52 52 52 52 52 52 52 52 52 52 52 52 52 52 52 52 52 52 52 52 52 52 52 52 52 51 51 51 51 51 51 51 51 51 51 51 51 51 51 51 51 51 51 51 51 51 51 51 51 51 51 51 51 51 51 51 51 51 51 51 51 51 51 51 51 51 51 51 51 51 51 51 51 51 51 51 51 51 51 51 51 51 51 51 51 51 51 51 51 51 51 51 51 51
0 0 0 0 0 0 0 55 55 55 55 55 55 55 55 55 55 55 55 55 55 55 55 55 55 55 55 55 55 55 55 54 54 55 55 55 55 55 55 55 55 55 55 55 55 55 54 54 54 54 54 54 54 54 54 54 55 55 55 55 55 55 55 54 54 54 54 54 54 54 54 54 54 54 54 54 54 54 54 54 54 54 54 54 54 54 54 54 54 54 54 54 54 54 54 54 54 54 54 54 54 54 54 54 55 55 55 54 54 54 54 54 54 54 54 54 54 54 54 54 54 54 54 54 54 54 54 54 54 54 54 54 54 54 54 54 54 54 54 54 54 54 54 54 54 54 54 54 54 54 54 54 54 54 54 54 54 54 54 54 54 54 54 54 54 54 54 54 54 54 54 54 54 54 54 54 54 54 54 54 54 54 54 54 54 54 54 54 54 54 54 54 54 54 54 54 54 54 54 54 54 54 54 54 54 54 54 54 54 54 54 54 54 54 54 54 54 54 54 54 54 54 54 54 54 54 54 54 54 54 54 54 54 54 54 54 54 54 54 54 54 54 54 55 55 54 54 54 54 54 54 54 54 54 54 54 54 54 54 54 54 54 54 54 54 54 54 54 54 54 54 54 54 54 54 54 54 54 54 54 54 54 54 54 54 54 54 54 54 54 54 54 54 54 54 54 54 54 54 54 54 54 54 54 54 54 54 54 54 54 54 54 54 54 54 54 54 54 54 54 54 54 54 54 54 54 54 54 54 54 54 54 54 54 54 54 54 54 54 54 54 54 54 53 53 53 53 54 54 53 53 53 53 54 54 54 54 54 54 54 54 53 53 53 53 54 54 54 54 54 54 54 54 54 54 54 54 54 54 54 54 54 54 54 54 54 53 53 53 53 53 53 53 53 53 53 53 53 53 53 53 53 53 53 53 53 53 53 53 53 53 53 53 53 53 53 53 53 53 53 53 53 53 53 53 53 53 53 53 53 53 53 53 53 53 53 53 53 53 53 53 53 53 53 53 53 53 53 53 53 53 53 53 53 53 53 53 53 53 53 53 53 53 53 53 53 53 53 53 53 53 53 53 53 53 53 53 53 53 53 53 53 53 53 53 53 53 53 53 53 53 53 53 52 52 53 53 53 53 53 53 53 53 53 53 53 53 53 53 52 52 52 53 53 53 53 52 52 52 52 52 52 52 52 52 52 52 52 52 52 52 52 52 52 52 52 52 52 52 52 52 52 52 52 52 52 52 52 52 52 52 52 52 52 52 52 52 52 52 52 52 52 52 52 52 52 52 52 52 52 52 52 52 52 52 52 52 51 51 51 51 51 51 51 51 51 51 51 51 51 51 51 51 51 51 51 51 51 51 51 51 51 51 51 51 51 51 51 51 51 51 51 51 51 51 51 51 51 51 51 51 51 51 51 51 51 51 51 51 51 51 51 51 51 51 51 51 51 51 51
0 0 0 0 0 0 0 55 55 55 55 55 55 55 55 55 55 55 55 55 55 55 55 55 55 55 55 55 55 55 55 54 54 55 55 55 55 55 55 55 55 55 55 55 55 55 54 54 54 54 54 54 54 54 54 55 55 55 55 55 55 55 55 55 55 55 55 55 55 55 54 54 54 54 54 54 54 54 54 54 54 54 54 54 54 54 54 54 54 54 54 54 54 54 54 54 54 54 54 54 54 54 54 54 54 55 55 55 54 54 54 54 54 54 54 54 54 54 54 54 54 54 54 54 54 54 54 54 54 54 54 54 54 54 54 54 54 54 54 54 54 54 54 54 54 54 54 54 54 54 54 54 54 54 54 54 54 54 54 54 54 54 54 54 54 54 54 54 54 54 54 54 54 54 54 54 54 54 54 54 54 54 54 54 54 54 54 54 54 54 54 54 54 54 54 54 54 54 54 54 54 54 54 54 54 54 54 54 54 54 54 54 54 54 54 54 54 54 54 54 54 54 54 54 54 54 54 54 54 54 54 54 54 54 54 54 54 54 55 55 54 54 54 54 55 54 54 54 54 54 54 54 54 54 54 54 54 54 54 54 54 54 54 54 54 54 54 54 54 54 54 54 54 54 54 54 54 54 54 54 54 54 54 54 54 54 54 54 54 54 54 54 54 54 54 54 54 54 54 54 54 54 54 54 54 54 54 54 54 54 54 54 54 54 54 54 54 54 54 54 54 54 54 54 54 54 54 54 54 54 54 54 54 54 54 54 54 54 54 54 54 54 54 54 54 54 54 54 54 54 53 53 53 54 53 53 54 54 54 54 54 53 53 53 53 54 54 54 54 54 54 54 54 54 54 54 54 54 54 54 54 54 54 54 54 54 53 53 53 53 53 53 53 53 53 53 53 53 53 53 53 53 53 53 53 53 53 53 53 53 53 53 53 53 53 53 53 53 53 53 53 53 53 53 53 53 53 53 53 53 53 53 53 53 53 53 53 53 53 53 53 53 53 53 53 53 53 53 53 53 53 53 53 53 53 53 53 53 53 53 53 53 53 53 52 52 52 53 53 53 53 53 53 53 53 53 53 53 53 53 53 53 53 53 53 53 53 53 53 53 53 53 53 53 53 53 53 53 53 53 53 53 53 53 53 53 52 52 52 52 52 52 52 53 53 53 52 52 52 52 52 52 52 52 52 53 53 53 52 52 52 52 52 52 52 52 52 52 52 52 52 52 52 52 52 52 52 52 52 52 52 52 52 52 52 52 52 52 52 52 52 51 51 51 51 52 52 52 52 52 52 52 52 52 52 52 52 52 51 51 51 51 51 51 51 51 51 51 51 51 51 51 51 51 51 51 51 51 51 51 51 51 51 51 51 51 51 51 51 51 51 51 51 51 51 51 51 51 51 51 51 51 51 51 51 51 51 51 51 51 51 51 51 51 51 51 51 51 51 51
0 0 0 0 0 0 0 55 55 55 55 55 55 55 55 55 55 55 55 55 55 55 55 55 55 55 55 55 55 55 55 55 55 54 54 54 54 55 55 55 55 55 55 55 55 55 54 54 54 54 54 54 54 55 55 55 55 55 55 55 54 54 55 55 55 55 55 55 55 55 55 54 54 55 55 54 54 54 54 54 54 54 54 54 54 54 54 54 54 54 54 54 54 54 54 54 54 54 54 54 54 54 54 54 54 55 55 55 54 54 54 54 54 54 54 54 54 54 54 54 54 54 54 54 54 54 54 54 54 54 54 54 54 54 54 54 54 54 54 54 54 54 54 54 54 54 54 54 54 54 54 54 54 54 54 54 54 54 54 54 54 54 54 54 54 54 54 54 54 54 54 54 54 54 54 54 54 54 54 54 54 54 54 54 54 54 54 54 54 54 54 54 54 54 54 54 54 54 54 54 54 54 54 54 54 54 54 54 54 54 54 54 54 54 54 54 54 54 54 54 54 54 54 54 54 54 54 54 54 54 54 54 54 54 54 54 54 54 55 55 54 54 54 54 54 54 54 54 54 54 54 54 54 54 54 54 54 54 54 54 54 54 54 54 54 54 54 54 54 54 54 54 54 54 54 54 54 54 54 54 54 54 54 54 54 54 54 54 54 54 54 54 54 54 54 54 54 54 54 54 54 54 54 54 54 54 54 54 54 54 54 54 54 54 54 54 54 54 54 54 54 54 54 54 54 53 53 54 54 54 54 54 54 54 54 54 54 54 54 54 54 54 54 54 54 54 54 54 54 54 53 53 53 54 53 53 54 54 54 54 54 53 53 53 53 53 54 54 54 54 54 54 54 54 54 54 54 54 54 54 54 54 54 54 54 54 54 54 53 53 53 53 53 53 53 53 53 53 53 53 53 53 53 53 53 53 53 53 53 53 53 53 53 53 53 53 53 53 53 53 53 53 53 53 53 53 53 53 53 53 53 53 53 53 53 53 53 53 53 53 53 53 53 53 53 53 53 53 53 53 53 53 53 53 53 53 53 53 53 53 53 53 53 53 52 52 52 53 53 53 53 53 53 53 53 53 53 53 53 53 53 53 53 53 53 53 53 53 53 53 53 53 53 53 53 53 53 53 53 53 53 53 53 53 52 52 52 52 52 52 52 52 52 52 52 52 52 52 52 52 52 52 52 52 52 53 53 53 52 52 52 52 52 52 52 52 53 53 53 52 52 52 52 52 52 52 52 52 52 52 52 52 52 52 52 52 52 52 52 52 52 51 51 51 51 51 52 52 52 52 52 52 52 52 52 52 52 52 52 51 51 51 51 51 51 51 51 51 51 51 51 51 51 51 51 51 51 51 51 51 51 51 51 51 51 51 51 51 51 51 51 51 51 51 51 51 51 51 51 51 51 51 51 51 51 51 51 51 51 51 51 51 51 51 51 51 51 51 51 51
